ply
format ascii 1.0
element vertex 1151
property float x
property float y
property float z
property uint8 red
property uint8 green
property uint8 blue
end_header
-7.505388 28.228899 -0.425351 222 200 159
-7.220866 27.967094 -0.444785 216 187 152
-7.399203 28.076584 -0.459880 220 199 169
-7.399203 28.076584 -0.459880 220 199 169
-6.629927 27.695639 -0.454188 130 104 58
-6.439514 27.636711 -0.485507 133 103 61
0.735424 22.087015 -0.328427 240 213 176
-7.527349 26.953453 -0.594029 242 217 173
0.982231 19.966928 -0.404492 113 80 35
-7.423775 26.807917 -0.637603 223 198 159
-7.423775 26.807917 -0.637603 223 198 159
-5.532751 25.835096 -0.655864 238 215 180
-7.761775 26.670959 -0.745355 235 210 172
-0.306932 19.814453 -0.544124 216 197 163
-0.306932 19.814453 -0.544124 216 197 163
-7.517753 26.640703 -0.777262 138 110 74
-7.517753 26.640703 -0.777262 138 110 74
-7.341819 29.129145 -0.143609 143 108 55
-7.427604 29.063459 -0.166100 148 102 62
-6.865699 28.005144 -0.368792 234 210 171
-2.416790 24.739731 -0.317797 236 207 152
-6.683328 27.803829 -0.424081 227 203 165
-0.186949 22.181404 -0.363112 245 222 183
-7.132954 26.990192 -0.552884 147 120 74
-7.019220 26.913836 -0.558182 198 175 143
0.980821 21.461248 -0.395865 243 224 187
-5.523963 26.025402 -0.585476 239 215 177
-7.019076 26.770300 -0.645662 227 212 173
-1.672484 23.171473 -0.546521 176 147 111
-7.173356 26.705574 -0.663954 229 190 164
-7.529266 26.795984 -0.673168 234 208 171
-7.273542 26.722738 -0.686787 232 210 176
-7.067616 26.739754 -0.716141 114 84 46
-6.009309 25.959202 -0.708159 232 210 173
-5.294833 25.549532 -0.700005 241 216 173
-6.445315 26.216372 -0.748917 214 200 168
-7.551570 29.130304 -0.157303 225 215 187
-7.319320 28.966354 -0.187063 233 211 172
-6.659016 27.830744 -0.363777 232 206 168
-5.670835 26.019913 -0.614830 230 206 162
-7.636029 26.860800 -0.647943 179 165 140
-7.636029 26.860800 -0.647943 179 165 140
-7.557201 26.679314 -0.686016 237 214 177
-5.872894 25.894917 -0.712276 229 206 174
-6.244329 26.084490 -0.741586 245 219 178
-7.161636 28.903620 -0.176023 227 208 172
-6.112580 27.692896 -0.373237 200 190 147
-6.871517 26.951071 -0.527268 221 188 156
-6.972256 26.846067 -0.687543 104 75 33
-7.441918 28.602629 -0.342298 238 205 169
-7.684866 28.524982 -0.374269 207 176 143
-1.290097 24.823933 -0.317760 236 206 175
-7.144459 26.912825 -0.604230 186 166 134
-6.894886 26.969276 -0.643794 118 84 29
-4.029046 25.908827 -0.393771 111 102 82
0.113321 29.246273 0.256193 237 215 176
-5.910715 31.324932 -0.110823 0 0 0
-6.200562 28.628866 -0.105501 237 215 176
-5.638278 27.121721 -0.108745 231 211 171
-5.356365 28.165640 -0.165498 0 0 0
-6.094357 28.291767 -0.195079 237 214 174
0.612297 23.169134 -0.117482 237 215 175
-6.024438 27.763351 -0.338122 241 220 175
-6.146971 27.734119 -0.369496 152 105 72
-6.012422 27.655182 -0.374397 180 156 133
0.253870 22.863804 -0.253918 200 170 145
-6.172357 27.622347 -0.411328 142 118 94
-6.122175 27.860556 -0.421786 0 0 0
-5.411791 26.924261 -0.515474 206 165 128
-5.411791 26.924261 -0.515474 206 165 128
0.458051 21.777229 -0.409554 205 185 156
-4.809335 26.508240 -0.063456 242 219 180
-5.885943 27.919888 -0.230180 243 218 177
-6.076311 27.573412 -0.355326 234 205 160
-6.043657 27.557159 -0.358862 167 145 126
-5.817667 27.675341 -0.359400 160 130 101
-6.167511 27.598536 -0.382984 159 119 83
-6.167511 27.598536 -0.382984 159 119 83
-5.029876 26.633965 -0.517058 159 129 123
-5.029960 26.633844 -0.516432 159 129 123
-5.129787 25.007977 -0.525238 168 152 129
0.427215 21.557362 -0.429299 164 128 114
0.427215 21.557362 -0.429299 164 128 114
0.418026 21.270485 -0.469006 216 179 153
0.418026 21.270485 -0.469006 216 179 153
-5.666550 27.134535 -0.139987 238 211 176
0.446303 21.973717 -0.356417 235 217 179
0.545492 21.856293 -0.392194 195 175 144
-2.490942 24.398323 -0.663093 215 198 165
-6.447470 28.672607 -0.111436 148 113 68
-6.447470 28.672607 -0.111436 148 113 68
-5.992590 27.929609 -0.248385 238 215 175
-6.066154 27.887650 -0.292799 242 220 181
0.512131 22.955648 -0.206953 242 220 178
0.585130 21.613392 -0.399311 242 221 179
-6.335197 28.693796 -0.110127 240 215 175
0.812368 21.173824 -0.440428 122 89 77
0.769638 21.072107 -0.444809 134 108 74
-1.013482 24.514935 -0.165531 180 156 129
0.646826 21.326887 -0.366923 110 101 85
-4.412989 26.198202 0.161168 228 200 170
-4.853408 26.575111 0.154714 189 153 141
-4.457159 26.202217 0.131568 210 183 164
-3.487886 25.424604 0.136059 230 212 174
-3.215731 25.166155 0.137078 188 160 140
-4.702222 26.434116 0.107987 242 221 185
-4.388529 26.165091 0.078635 226 200 165
-4.816290 26.500633 0.048926 240 222 184
-5.380113 26.951427 0.040047 237 213 171
-5.343422 26.933743 0.035962 236 218 181
-4.920313 26.589443 0.041749 237 216 174
-3.526785 25.422562 0.013272 185 156 120
-3.526785 25.422562 0.013272 185 156 120
-3.585805 25.442797 0.002884 223 204 146
-3.066104 25.006500 0.005401 230 210 170
-4.058874 27.253744 -0.004707 181 140 93
-7.155759 29.315708 -0.056270 0 0 0
-3.692116 25.585110 -0.014116 235 210 169
-2.639879 26.138563 -0.007360 187 163 143
-3.507055 25.418655 -0.042892 219 205 171
-3.542576 25.409090 -0.064578 238 213 174
-2.629385 24.584564 -0.058152 189 168 118
-2.568601 24.526407 -0.058614 193 170 132
-5.088102 26.687260 -0.106968 202 168 134
-5.286323 26.865707 -0.122748 200 162 121
-5.261625 26.866175 -0.123872 230 205 154
-4.351051 26.111658 -0.126404 237 217 170
-2.633353 24.581493 -0.098094 237 217 177
-6.838830 28.631062 -0.168889 0 0 0
-6.838830 28.631062 -0.168889 0 0 0
-6.530241 28.942337 -0.162691 0 0 0
-4.339584 26.116566 -0.134456 214 176 152
-4.339584 26.116566 -0.134456 214 176 152
-4.522951 26.269737 -0.140086 222 187 164
-6.184791 28.798679 -0.163418 0 0 0
-5.521974 27.024717 -0.157605 233 212 173
-3.223088 25.121988 -0.127736 242 218 179
-2.784980 24.731314 -0.128242 209 200 171
-3.525551 25.414448 -0.149826 235 216 176
-4.418457 26.186626 -0.170470 184 143 112
-5.145431 26.741463 -0.185293 202 169 141
-6.817024 28.478886 -0.215258 0 0 0
-4.506520 26.241003 -0.182411 230 210 174
-3.483752 25.391243 -0.165906 222 209 179
-5.031075 26.682438 -0.192467 233 220 182
-5.031075 26.682438 -0.192467 233 220 182
-2.876002 24.795412 -0.157133 219 195 161
-3.631211 25.487534 -0.174220 203 168 126
-3.270806 25.150518 -0.185258 234 212 165
-4.316304 26.036400 -0.210947 189 164 126
-3.876040 25.713009 -0.204957 178 138 110
-3.798664 25.624359 -0.210295 170 135 99
-6.705172 28.313665 -0.268344 0 0 0
-4.106583 25.892353 -0.231818 171 140 108
-3.520696 25.415796 -0.223762 221 201 157
-3.149664 25.073330 -0.216231 201 176 146
-3.554375 25.423580 -0.225484 237 213 170
-3.619821 25.477057 -0.235301 183 148 122
-3.303891 25.906841 -0.237050 0 0 0
-6.825851 28.148926 -0.293832 224 202 156
-4.756750 26.437353 -0.263746 231 212 173
-4.593967 26.333300 -0.260998 231 211 168
-5.452052 27.362692 -0.284104 221 210 179
-4.201535 26.002594 -0.259200 199 168 138
-5.606641 27.073334 -0.293294 197 182 151
-2.614769 24.546946 -0.238980 228 204 160
-4.170298 25.969194 -0.271137 211 195 162
-2.886783 24.770781 -0.247242 229 215 174
-2.385231 24.306431 -0.237293 156 118 90
-3.999872 25.805422 -0.270237 234 208 163
-3.999872 25.805422 -0.270237 234 208 163
-2.420552 24.399078 -0.242505 160 119 74
-4.785714 26.456995 -0.288919 180 142 109
-4.482174 26.239510 -0.283947 213 181 154
-3.533061 25.384884 -0.272335 213 203 167
-2.891842 24.806900 -0.262832 234 217 180
-4.043056 25.824839 -0.289456 132 115 101
-6.129713 27.773142 -0.346181 152 129 115
-4.873010 26.758883 -0.326024 217 194 150
-4.872351 26.534981 -0.322532 217 194 150
-6.271179 27.720001 -0.350361 221 201 162
-4.912034 26.529305 -0.325460 219 193 164
-4.296684 26.251390 -0.320611 228 208 169
-3.563188 25.437033 -0.304784 220 203 162
-3.262642 25.167133 -0.300163 207 191 149
-3.147753 25.068914 -0.298654 239 215 172
-3.147753 25.068914 -0.298654 239 215 172
-3.904459 25.730629 -0.316830 198 159 127
-2.952004 24.902699 -0.303631 213 201 163
-4.753334 26.409306 -0.341123 231 209 170
-5.019781 26.616936 -0.351329 242 224 180
-6.586689 27.811167 -0.386931 225 208 160
-5.194334 26.726898 -0.361358 228 205 168
-3.447285 25.333042 -0.329570 188 152 97
-3.447285 25.333042 -0.329570 188 152 97
-4.790560 26.443201 -0.358014 222 190 154
-5.447973 26.991961 -0.372147 231 214 175
-3.874229 25.700554 -0.345834 228 207 174
-3.271810 25.451548 -0.336610 208 187 147
-3.585392 25.438715 -0.342511 234 211 166
-5.465785 26.963903 -0.380825 173 150 121
-3.932317 25.913929 -0.357521 202 178 146
-5.025976 26.665920 -0.382645 231 209 166
-3.220093 25.282564 -0.352384 199 192 159
-5.161579 26.800493 -0.396836 215 195 149
-4.053435 26.171936 -0.380788 175 150 141
-5.646975 27.069748 -0.412029 210 173 133
-5.277290 26.837090 -0.407458 165 135 101
-3.905768 25.746080 -0.383814 220 203 166
-2.668654 24.601795 -0.358179 204 196 161
-5.291184 26.789442 -0.419989 185 158 115
-3.409530 25.295332 -0.381550 183 165 143
-4.764548 26.432892 -0.412222 185 165 145
-4.050084 25.842323 -0.400057 159 124 93
-2.985079 25.009424 -0.393855 203 181 141
-3.230635 25.123165 -0.394657 205 186 154
-3.073697 24.955975 -0.395447 173 127 108
-3.886348 25.774923 -0.417054 221 205 168
-2.468597 24.424068 -0.387022 187 158 144
-5.398818 26.871891 -0.454687 168 139 126
-2.938070 24.845201 -0.404312 217 204 162
-3.077093 25.009430 -0.412359 211 191 149
-3.351947 25.241209 -0.430354 214 192 145
-3.794174 25.622337 -0.446052 235 213 170
-5.460111 26.542009 -0.478680 216 202 165
-5.349885 26.895700 -0.483574 190 161 129
-3.788076 25.617529 -0.454395 186 164 122
-6.303335 27.596369 -0.499380 127 95 59
-3.512238 25.372744 -0.452686 227 210 168
-5.588366 26.652536 -0.492995 241 219 176
-3.042800 24.964891 -0.446282 230 212 175
-5.351586 26.865250 -0.496508 229 208 171
-4.844999 26.487083 -0.498504 175 155 127
-5.456219 26.926537 -0.512796 212 182 153
-5.456219 26.926537 -0.512796 212 182 153
-5.014422 26.602755 -0.506755 238 216 167
-4.316129 26.040043 -0.496461 193 160 139
-4.750783 26.431072 -0.508655 222 203 166
-3.378604 25.224627 -0.482340 199 189 161
-2.926507 24.869123 -0.472759 155 120 93
-5.564504 27.000969 -0.537250 165 127 108
-5.564504 27.000969 -0.537250 165 127 108
-4.843398 26.504889 -0.530022 236 209 168
-5.245108 26.300474 -0.539668 177 147 125
-5.246996 26.795057 -0.546543 177 147 125
-5.166015 26.735157 -0.543705 224 200 150
-5.001005 26.592756 -0.543238 189 142 114
-4.348204 26.101269 -0.532351 217 199 158
-4.499261 26.204447 -0.536991 173 147 119
-3.544132 25.364506 -0.517982 156 134 108
-4.524590 26.245335 -0.541348 227 207 172
-3.850057 25.656143 -0.529200 143 120 106
-2.853358 24.675446 -0.501688 222 204 168
-4.422584 26.103561 -0.543631 194 155 106
-4.422584 26.103561 -0.543631 194 155 106
-5.624785 26.568823 -0.563408 170 143 124
-2.500962 24.411457 -0.504099 165 133 100
-7.757221 27.175835 -0.596350 0 0 0
-3.042240 24.933811 -0.523648 200 187 147
-5.067210 26.657642 -0.578157 189 168 135
-2.953995 24.848713 -0.534085 155 122 95
-2.953220 24.847124 -0.534937 155 122 95
-5.161549 26.716021 -0.590328 205 172 129
-2.981631 24.776285 -0.534279 198 184 156
-5.263633 26.762693 -0.603231 205 174 144
-5.440036 26.931509 -0.608462 210 201 177
-5.300595 26.820473 -0.605320 216 183 158
-4.582626 26.268471 -0.598609 185 181 142
-2.745282 24.657766 -0.557291 203 194 165
-4.987903 26.616091 -0.613123 215 197 157
-6.948215 26.878912 -0.632929 0 0 0
-7.316251 27.393229 -0.647970 180 140 95
-5.311457 26.850760 -0.628061 230 214 172
-4.989192 26.591789 -0.621599 175 132 105
-5.413322 26.279045 -0.618171 209 177 130
-5.350417 26.840340 -0.630652 220 201 164
-5.132372 26.692787 -0.661029 186 163 129
-2.850401 24.751829 -0.609053 201 187 160
-2.584358 24.486174 -0.601501 171 138 107
-7.306327 27.318024 -0.691354 133 95 80
-2.510245 24.408821 -0.608675 226 199 157
-5.081821 26.625397 -0.691609 211 193 155
-5.322475 26.835548 -0.713771 185 137 105
-5.322475 26.835548 -0.713771 185 137 105
-3.697241 25.513151 -0.682730 210 197 160
-4.109468 25.842150 -0.699128 216 196 158
-4.074108 25.843634 -0.699927 174 149 121
-4.842438 25.734972 -0.711498 233 215 164
-3.873081 25.676903 -0.707716 180 181 155
-2.376210 24.299419 -0.667423 200 191 157
-5.082195 26.641413 -0.739964 203 180 142
-4.922649 26.517946 -0.738471 215 193 154
-4.837510 26.454689 -0.740765 225 204 157
-3.764206 25.563162 -0.722710 201 172 152
-4.178390 25.915627 -0.739330 186 169 123
-5.376795 26.845495 -0.768507 162 130 107
-3.929756 25.718889 -0.735063 170 133 106
-7.737246 27.380911 -0.803798 167 140 125
-3.639607 25.445353 -0.759458 172 153 135
-4.481682 26.143959 -0.787706 232 211 177
-4.043546 25.819845 -0.776545 181 176 141
-7.953418 27.332144 -0.837942 218 193 155
-4.852334 26.465351 -0.812274 234 212 175
-5.137996 26.709375 -0.821307 225 211 172
-4.687981 26.315334 -0.813797 194 164 125
-5.208048 26.745398 -0.837045 188 156 131
-2.441790 24.359301 -0.762536 207 188 150
-3.006701 24.887667 -0.780724 212 199 159
-5.506024 26.958597 -0.847012 233 215 175
-4.401970 26.116886 -0.823602 204 193 162
-4.573961 26.255220 -0.830584 156 119 85
-5.653847 27.030291 -0.860210 235 214 173
-3.150218 25.004961 -0.797078 181 159 134
-4.526712 26.223314 -0.838019 188 151 124
-4.966178 26.555338 -0.853818 237 216 178
-4.800017 26.417990 -0.859180 213 188 163
-4.509753 26.168089 -0.854155 194 150 101
-3.701913 25.520941 -0.838441 218 196 156
-5.516001 26.947479 -0.886289 228 212 173
-5.036826 26.602171 -0.877123 235 217 180
-4.452250 26.162809 -0.862617 228 204 161
-4.371005 26.068531 -0.861175 187 150 137
-5.059840 26.638855 -0.892454 233 211 168
-3.487184 25.338718 -0.869295 180 147 107
-3.487184 25.338718 -0.869295 180 147 107
-3.344612 25.167845 -0.880823 234 210 167
-3.296268 25.154978 -0.882057 145 116 85
-4.630829 26.327797 -0.924022 133 104 79
-4.494541 26.129551 -0.943975 158 135 127
-4.406204 26.065609 -0.942300 225 204 157
-5.041028 26.613419 -0.984533 197 170 141
-4.842224 26.433519 -0.983308 171 141 117
-3.156422 25.118816 0.160481 242 219 177
-4.884068 26.569582 0.137009 243 223 186
-2.970108 24.958437 0.159787 177 143 122
-3.672686 25.590662 0.142545 234 208 170
-3.205437 25.162024 0.146551 229 207 164
-3.205437 25.162024 0.146551 229 207 164
-3.301634 25.229795 0.120634 236 214 172
-5.094480 26.718344 0.055926 226 198 164
-3.394301 27.112526 0.061252 209 167 103
-3.942186 25.800522 0.030570 223 189 132
-2.940671 24.902441 0.042268 212 195 162
-3.160284 26.898653 0.060124 152 124 101
-3.743087 27.220495 0.033271 238 211 167
-3.360592 25.279543 0.015216 222 211 175
-3.021635 24.967697 0.012896 218 193 163
-3.180803 25.107588 0.008630 241 215 172
-4.248665 26.031475 -0.013164 234 210 172
-2.677294 24.646919 0.003103 234 209 173
-3.042336 24.999203 -0.011720 231 211 175
-4.349376 26.121098 -0.033766 205 161 125
-4.238926 26.019615 -0.059673 235 213 176
-4.841106 26.516453 -0.078924 177 153 134
-4.841106 26.516453 -0.078924 177 153 134
-4.996288 26.639957 -0.085071 220 209 172
-2.805040 24.746881 -0.052022 218 199 161
-4.853101 27.492401 -0.079002 236 215 174
-3.489481 25.373552 -0.078100 189 150 113
-3.489481 25.373552 -0.078100 189 150 113
-3.424813 25.351915 -0.077147 155 124 99
-5.485845 26.970810 -0.114820 242 216 177
-2.459310 24.431656 -0.064519 165 138 111
-5.699906 28.335836 -0.119584 0 0 0
-4.043712 25.860016 -0.104004 228 213 175
-3.773493 26.263882 -0.118065 198 165 116
-6.697625 28.507656 -0.163286 0 0 0
-3.083603 25.050289 -0.106334 239 218 180
-3.292439 25.210258 -0.115176 225 205 173
-5.260389 26.837255 -0.163734 197 183 149
-4.614457 26.328503 -0.160825 229 211 174
-3.265599 25.216208 -0.147122 218 203 164
-2.830736 24.774572 -0.148357 241 213 172
-5.725334 27.167431 -0.202276 188 164 139
-4.519937 26.252430 -0.183750 229 211 175
-5.263665 26.829334 -0.199664 203 178 154
-3.359528 25.235296 -0.165656 217 181 135
-3.543401 25.408545 -0.178022 173 149 109
-3.626661 25.464489 -0.183524 231 212 174
-4.586040 26.323723 -0.203311 186 148 116
-4.514351 26.236605 -0.202679 175 139 104
-4.175402 25.976271 -0.196541 166 124 84
-3.749561 25.585829 -0.191389 214 196 158
-3.681995 25.538664 -0.188413 221 209 170
-4.250650 26.785067 -0.209681 0 0 0
-4.829986 26.487865 -0.219073 215 180 143
-4.432956 26.169733 -0.218289 220 207 168
-5.375383 26.889471 -0.236049 229 206 166
-5.346645 26.909046 -0.234914 187 163 126
-2.844226 25.199270 -0.194377 227 210 162
-6.814941 28.166159 -0.270338 232 207 160
-3.969585 25.794859 -0.220870 154 136 123
-3.600759 25.897831 -0.215415 208 173 152
-3.035510 24.932962 -0.218441 193 170 120
-5.470148 26.997929 -0.260759 214 188 146
-5.090887 26.666609 -0.271117 204 190 146
-4.578721 26.297182 -0.278915 232 212 175
-3.641518 25.498056 -0.261879 229 208 172
-4.081780 25.878454 -0.270473 215 201 166
-3.017320 24.958960 -0.251159 229 208 151
-4.626701 26.330761 -0.295680 233 213 176
-4.960926 26.609034 -0.302344 229 208 171
-4.275832 26.028681 -0.290349 154 126 108
-3.395981 25.231920 -0.277869 238 212 169
-4.283438 26.021389 -0.301159 230 206 165
-3.210342 25.092134 -0.283638 177 143 107
-3.299298 25.195875 -0.299205 164 139 106
-4.293856 26.453581 -0.332946 0 0 0
-2.968126 24.868731 -0.303613 213 195 163
-6.119007 27.630764 -0.368611 148 112 87
-3.161611 25.048889 -0.316877 236 211 169
-5.479317 27.005630 -0.363565 228 207 168
-7.047472 27.958687 -0.416729 218 201 163
-2.629786 24.571886 -0.335296 157 125 86
-4.296128 26.060936 -0.372318 185 138 93
-3.629837 25.473114 -0.359894 187 142 94
-3.126156 25.035868 -0.350105 218 193 156
-5.429403 26.947548 -0.399094 187 176 141
-5.345016 26.887491 -0.402359 192 155 152
-7.196206 28.041447 -0.437531 204 188 157
-2.919703 24.845566 -0.366452 223 199 154
-5.664897 27.090170 -0.422334 169 145 108
-3.990187 25.903366 -0.394786 227 211 169
-5.972092 27.505312 -0.432954 143 114 86
-7.717497 28.275621 -0.467975 207 201 171
-6.791773 27.745787 -0.454418 215 205 170
-5.698087 27.128748 -0.440472 173 146 108
-7.268868 27.998619 -0.468576 195 181 144
-7.374400 28.047995 -0.477132 155 119 80
-4.343029 26.095072 -0.430684 224 205 170
-3.353102 25.217131 -0.414515 220 208 174
-4.151057 25.921942 -0.433930 211 186 146
-2.675780 24.576595 -0.410648 187 182 161
-2.472315 24.446428 -0.411057 231 214 177
-6.534952 27.621452 -0.502026 189 167 119
-4.521683 26.234243 -0.468930 228 207 167
-3.497273 25.402143 -0.464759 226 200 150
-6.773377 27.691463 -0.534642 147 115 77
-3.501424 25.382828 -0.473729 136 123 109
-5.360262 26.849890 -0.517194 234 207 168
-2.408075 24.327932 -0.469929 185 151 117
-2.887948 24.791620 -0.485372 183 154 146
-2.887948 24.791620 -0.485372 183 154 146
-5.209723 26.740906 -0.538774 179 148 136
-4.694000 26.342823 -0.527757 237 204 152
-3.070220 24.950787 -0.497711 125 90 67
-4.433069 26.191305 -0.535379 224 205 165
-3.615404 25.467451 -0.516704 147 118 92
-3.138716 24.941544 -0.511295 221 206 160
-5.719484 26.622772 -0.563386 219 205 164
-2.968682 24.867151 -0.523135 204 181 153
-4.771601 25.885626 -0.559879 232 199 141
-5.934742 26.317858 -0.584198 174 154 125
-4.954632 26.558727 -0.588429 221 193 156
-3.353978 25.209438 -0.552369 220 203 158
-5.335709 26.867083 -0.610876 199 162 125
-5.270854 26.185108 -0.599973 231 218 183
-4.105841 25.883926 -0.590712 183 151 122
-4.105841 25.883926 -0.590712 183 151 122
-8.120114 27.197903 -0.654959 0 0 0
-5.059725 26.629793 -0.629963 232 211 164
-7.815343 27.507275 -0.675614 219 199 165
-8.152881 27.202494 -0.671870 0 0 0
-4.777076 25.816515 -0.629730 224 206 171
-2.579475 24.512899 -0.592484 228 203 167
-5.104053 26.672340 -0.658605 191 166 135
-5.104053 26.672340 -0.658605 191 166 135
-4.187202 25.953815 -0.654304 214 187 151
-4.681982 25.690798 -0.653704 232 211 175
-8.101319 27.072975 -0.703009 0 0 0
-7.889657 27.462439 -0.719810 240 215 174
-2.696618 24.296715 -0.628315 134 100 68
-7.319488 26.680605 -0.702627 0 0 0
-4.113427 25.852676 -0.709437 161 130 100
-4.105640 25.126266 -0.700956 224 189 151
-4.880169 26.487144 -0.763737 230 209 172
-3.491769 25.340080 -0.734116 157 129 103
-4.821642 26.438154 -0.774791 194 181 155
-3.448363 24.436220 -0.724338 184 165 144
-5.461478 26.902914 -0.793176 210 194 166
-4.036090 25.775021 -0.766786 144 113 80
-8.622633 27.522348 -0.832498 137 111 87
-8.622633 27.522348 -0.832498 137 111 87
-4.281423 26.012995 -0.778487 232 213 174
-4.079646 25.829102 -0.776084 159 128 88
-5.279070 26.764147 -0.804817 203 181 154
-6.461953 26.053392 -0.795401 230 207 165
-3.656260 25.440773 -0.777256 241 221 177
-5.286245 26.770235 -0.824117 176 149 127
-5.213338 26.695175 -0.829011 211 209 178
-7.674431 26.562866 -0.836811 0 0 0
-3.535985 25.345381 -0.798702 230 213 168
-4.683165 26.303812 -0.830875 219 192 162
-3.331690 25.167461 -0.795952 155 140 119
-3.060835 24.913532 -0.792307 222 208 172
-3.002965 24.878725 -0.791639 163 129 104
-5.129763 26.670471 -0.848858 180 153 120
-3.177306 25.039469 -0.803938 217 201 170
-3.612795 25.447912 -0.821319 201 191 162
-5.224082 26.706507 -0.867585 235 214 176
-4.163581 25.913086 -0.842683 231 212 173
-3.571724 25.397343 -0.836296 145 117 74
-4.877980 26.452042 -0.874828 212 188 161
-3.046284 24.897915 -0.832561 221 211 180
-3.099694 24.977510 -0.838871 218 200 163
-5.038807 26.631153 -0.898395 202 157 136
-5.103691 26.636635 -0.901885 203 173 145
-3.100880 24.977167 -0.849438 180 144 109
-3.628464 25.433117 -0.866881 206 191 163
-3.433625 25.292126 -0.862307 181 151 113
-3.136086 25.023943 -0.858245 141 109 79
-3.657067 25.475124 -0.874474 227 204 159
-3.376670 25.236759 -0.871536 238 211 171
-3.952315 25.717867 -0.892180 171 163 132
-3.952315 25.717867 -0.892180 171 163 132
-4.237178 25.949015 -0.904034 194 158 118
-3.961128 25.728205 -0.904066 211 199 164
-4.379288 26.106775 -0.924473 222 205 149
-3.492377 25.329000 -0.898341 209 194 163
-4.636589 26.318880 -0.937624 114 86 58
-4.468670 26.125175 -0.932904 192 162 145
-4.591750 26.235233 -0.938445 194 185 160
-4.278814 26.016264 -0.931771 229 218 169
-3.414280 25.227989 -0.912359 152 118 75
-4.286622 25.977880 -0.943728 146 131 115
-4.364693 26.091328 -0.966417 163 138 108
-5.153368 26.792564 0.049312 214 184 147
-5.383228 26.905531 0.044051 241 219 174
-3.686136 27.225138 0.057720 218 198 174
-4.346719 26.093302 -0.022502 236 212 175
-3.130426 25.072975 -0.009496 233 212 176
-3.347927 25.244268 -0.051180 157 118 83
-4.344070 26.127718 -0.068867 242 218 179
-4.249390 26.029778 -0.070730 206 179 159
-7.326664 29.148211 -0.119171 0 0 0
-4.735401 26.448074 -0.081384 238 216 177
-3.351207 26.476414 -0.062085 224 202 159
-4.010828 25.792292 -0.114706 192 152 99
-6.467088 28.867676 -0.174531 0 0 0
-4.443164 26.182987 -0.160809 232 211 168
-4.170619 27.934071 -0.167909 0 0 0
-5.318198 26.884300 -0.180849 238 215 173
-4.587919 26.326965 -0.183389 237 216 177
-3.507489 25.352455 -0.165324 228 211 176
-4.347660 26.136364 -0.181602 232 211 161
-6.433095 28.277719 -0.223968 0 0 0
-3.555517 25.426298 -0.192478 219 202 170
-3.033092 24.974533 -0.186479 230 211 173
-5.202695 26.764395 -0.228560 206 188 157
-3.006249 24.979033 -0.203681 222 202 163
-5.628739 27.520245 -0.253547 225 205 167
-6.823153 28.162003 -0.282456 128 117 103
-3.199056 25.120865 -0.237339 176 178 154
-6.963406 28.343456 -0.307392 231 208 173
-4.814142 26.516321 -0.272681 198 163 134
-4.814294 26.428864 -0.284295 231 203 162
-4.813946 26.458899 -0.283802 231 203 162
-3.382604 25.270149 -0.263674 209 175 147
-5.211601 26.791958 -0.315610 191 179 145
-4.066473 25.876240 -0.305450 227 205 165
-4.473608 26.627533 -0.316704 0 0 0
-2.842947 24.785538 -0.292733 143 110 77
-7.471554 28.304672 -0.382635 235 213 175
-3.262244 25.401186 -0.310596 224 202 165
-4.109392 25.938398 -0.335362 240 213 175
-3.476635 25.354576 -0.326043 215 192 153
-3.729692 25.556253 -0.341224 237 213 176
-5.479200 27.181171 -0.392531 205 192 153
-4.245265 26.140326 -0.377767 219 196 162
-3.981568 26.046217 -0.386687 177 141 110
-4.393362 26.159544 -0.409117 219 200 170
-6.314404 27.577492 -0.454943 190 165 116
-3.509704 25.459991 -0.412549 231 210 171
-2.892252 24.903231 -0.396495 208 186 151
-2.825531 24.789093 -0.425966 221 193 156
-5.093058 26.683872 -0.480570 223 201 161
-4.257753 26.021507 -0.462307 216 204 169
-4.257899 25.997555 -0.464362 216 204 169
-4.030179 25.809587 -0.463727 233 209 170
-4.300727 26.011164 -0.483038 224 203 160
-2.437889 24.348335 -0.442400 222 206 172
-5.793286 26.710594 -0.545259 235 205 169
-4.731436 25.934916 -0.530344 228 212 174
-2.975556 24.866135 -0.499546 228 208 170
-2.891253 24.761524 -0.497728 227 204 170
-3.101671 24.978876 -0.510474 110 95 82
-4.573001 26.272953 -0.548246 229 205 167
-6.317786 26.927483 -0.583295 187 187 169
-3.008922 24.869507 -0.521577 168 131 89
-5.628233 27.106739 -0.582212 229 203 159
-4.538967 26.290899 -0.563618 241 220 179
-7.558477 26.946362 -0.609016 0 0 0
-4.197393 25.938410 -0.593848 219 201 168
-5.546237 27.024891 -0.626929 236 212 162
-2.361305 24.270233 -0.554423 232 207 164
-6.960079 26.928888 -0.646503 125 94 54
-4.968909 26.560764 -0.628700 235 214 177
-7.325140 26.779741 -0.653191 0 0 0
-5.063393 26.647148 -0.643794 199 168 139
-6.387911 26.846962 -0.661179 234 214 177
-7.854406 26.987492 -0.678733 0 0 0
-7.133248 27.351820 -0.682522 140 107 67
-5.880364 26.477890 -0.684004 186 165 149
-2.861714 24.772635 -0.633842 160 129 93
-4.563278 26.225807 -0.688032 231 207 172
-5.373287 26.839811 -0.711887 230 207 165
-3.985344 25.775492 -0.683392 187 169 130
-7.715549 27.378489 -0.741101 210 192 160
-7.756341 27.386497 -0.743763 138 135 124
-5.390222 26.863960 -0.733023 172 147 121
-5.390222 26.863960 -0.733023 172 147 121
-4.028997 25.771864 -0.713970 144 118 76
-4.028997 25.771864 -0.713970 144 118 76
-6.905169 27.027876 -0.767015 220 205 171
-3.955940 25.731871 -0.726151 188 168 140
-5.513152 25.580921 -0.742812 228 209 168
-7.910531 27.365473 -0.804087 206 192 157
-3.420627 25.262274 -0.739978 233 216 176
-8.711036 27.591833 -0.820775 147 113 80
-8.651213 27.544922 -0.823726 224 202 173
-3.668434 25.470434 -0.760713 221 202 170
-6.852269 26.290346 -0.792098 0 0 0
-4.053651 25.775219 -0.779603 196 182 146
-5.519714 26.954021 -0.828031 224 205 171
-5.560385 26.986683 -0.847067 235 209 173
-2.860894 24.733036 -0.791352 219 193 161
-4.139432 25.856964 -0.830073 218 199 167
-2.835902 24.720201 -0.824663 211 196 164
-3.178664 25.025438 -0.850208 158 121 90
-3.583876 25.410645 -0.873667 167 130 91
-4.465225 26.132032 -0.906674 233 204 163
-5.442717 26.874325 -0.940174 238 215 175
-4.562518 26.212915 -0.919587 211 193 156
-3.796815 25.602371 -0.916391 242 224 185
-4.555249 26.168043 -0.957938 211 197 163
-5.046414 26.565460 -0.972187 231 214 168
-3.163547 25.043592 -0.924366 141 118 88
-5.218359 26.733006 -0.986186 230 208 172
-3.441453 30.589354 0.257821 0 0 0
-4.914358 26.562803 0.124165 222 201 162
-3.465940 25.396893 0.082805 242 218 176
-3.330213 25.241583 0.041188 242 218 181
-3.758239 25.635786 -0.001710 175 137 97
-2.785471 24.693445 -0.005918 232 209 172
-2.785471 24.693445 -0.005918 232 209 172
-4.094718 25.878187 -0.051746 233 213 178
-5.506688 27.027929 -0.092620 235 214 176
-5.598619 28.268587 -0.131169 0 0 0
-5.972410 27.909073 -0.157517 229 209 167
-5.411766 26.959385 -0.164849 187 174 135
-7.306661 28.858900 -0.205184 0 0 0
-3.387956 25.280451 -0.160615 160 131 95
-5.008363 26.626642 -0.193576 227 212 179
-5.008363 26.626642 -0.193576 227 212 179
-5.429936 27.925154 -0.220273 0 0 0
-2.709986 24.664297 -0.179106 239 212 172
-2.826759 24.778711 -0.200481 148 123 91
-3.141440 25.053621 -0.232611 234 212 178
-6.571980 27.954784 -0.306330 237 215 178
-5.088742 26.671274 -0.294226 171 136 94
-2.539611 24.457125 -0.265003 139 131 107
-5.523505 27.011793 -0.326779 157 124 89
-5.434114 26.970615 -0.335622 229 205 165
-5.528783 27.003122 -0.342796 229 207 174
-7.555486 28.318981 -0.404986 141 107 69
-5.641403 27.280594 -0.401867 159 132 102
-5.188591 26.748932 -0.394580 165 142 114
-6.530002 27.708290 -0.435058 217 190 148
-5.380552 26.898674 -0.438247 141 111 78
-3.568019 25.414511 -0.415325 229 207 174
-3.317256 25.288866 -0.414302 226 205 172
-5.093759 26.670301 -0.466700 139 103 90
-4.684210 26.354136 -0.474429 225 204 163
-4.684210 26.354136 -0.474429 225 204 163
-5.639042 26.685186 -0.493280 241 216 176
-2.806096 24.731588 -0.435474 117 86 64
-6.571397 27.663984 -0.514549 124 88 72
-4.976491 26.586794 -0.557271 231 209 169
-3.272187 25.165539 -0.524496 159 129 91
-3.272187 25.165539 -0.524496 159 129 91
-6.130338 26.432405 -0.583310 0 0 0
-4.993125 26.583097 -0.582151 241 218 180
-5.965342 26.305187 -0.605287 227 199 161
-5.875978 26.599937 -0.622761 233 208 167
-5.205795 26.797617 -0.661686 237 216 177
-2.560745 23.696274 -0.579962 0 0 0
-4.508421 26.163858 -0.654364 244 220 180
-4.508421 26.163858 -0.654364 244 220 180
-7.233162 27.353500 -0.718471 194 179 144
-7.278350 27.300489 -0.749045 215 198 165
-5.197145 26.716736 -0.764456 238 217 176
-4.913176 26.493368 -0.788311 238 211 174
-3.987860 25.718662 -0.785532 216 199 168
-5.478689 26.933723 -0.850677 223 204 168
-5.196890 26.706850 -0.853801 227 207 166
-3.214355 25.111650 -0.822063 224 206 174
-3.579788 25.398327 -0.856663 237 214 171
-2.944498 24.812513 -0.843306 210 199 171
-2.996241 24.923409 -0.855686 218 199 170
-3.452399 25.291693 -0.877381 230 212 175
-3.057521 25.002577 0.166825 197 183 143
-3.180506 25.131645 0.156168 236 213 174
-3.535976 25.435495 0.124638 238 216 180
-7.184103 29.116222 -0.120441 0 0 0
-6.047786 28.044325 -0.124980 235 211 171
-2.866086 24.781563 -0.121531 229 207 175
-2.866086 24.781563 -0.121531 229 207 175
-6.803088 28.504566 -0.187706 0 0 0
-5.058681 26.686407 -0.171016 242 217 176
-2.781052 24.687998 -0.138768 221 201 165
-5.173615 27.268133 -0.235160 165 122 81
-3.192575 25.107294 -0.217260 229 205 170
-4.724373 26.346270 -0.269645 237 215 175
-5.188334 27.565454 -0.292483 0 0 0
-3.669068 25.482946 -0.306589 194 195 160
-3.802385 25.646734 -0.310844 228 206 168
-6.185600 27.576876 -0.400288 225 200 159
-4.291275 26.038664 -0.382306 164 147 117
-5.310341 26.809555 -0.430966 154 121 75
-4.059805 25.806208 -0.417063 218 200 168
-2.940345 24.894241 -0.399753 209 188 148
-4.204063 25.988821 -0.463366 232 204 168
-3.303624 25.180151 -0.479771 232 209 170
-6.671991 27.705940 -0.573607 146 119 80
-5.066438 26.137234 -0.553100 230 207 164
-2.855104 24.771589 -0.538623 145 116 78
-2.725735 24.637520 -0.544439 111 89 50
-6.390269 26.791805 -0.702806 146 118 88
-6.370864 26.301992 -0.705014 232 214 168
-7.760567 27.345528 -0.765721 213 196 163
-4.549698 24.997297 -0.709955 0 0 0
-4.160894 25.929892 -0.838177 226 209 171
-3.393926 25.217508 -0.911478 151 117 80
-3.150672 24.847754 -0.932835 200 186 157
-3.086416 25.055851 0.142003 240 217 181
-3.676688 27.151396 0.045943 226 185 144
-5.504344 27.681303 -0.125097 234 208 168
-2.939395 24.879177 -0.181432 169 153 121
-3.468719 25.374046 -0.203067 228 212 176
-3.581267 25.452482 -0.283341 164 141 143
-5.149876 26.689148 -0.567470 167 157 129
-4.233548 26.034657 -0.562629 213 182 162
-7.771091 26.951220 -0.665200 0 0 0
-7.078622 27.401436 -0.725176 207 191 161
-4.340023 26.042364 -0.922029 155 126 92
-4.348437 26.133877 -0.165722 226 205 165
-5.884853 28.116758 -0.302632 0 0 0
-3.075037 25.268860 -0.292323 235 201 167
-6.558443 27.766426 -0.424573 218 197 158
-3.254220 25.165379 -0.372723 213 190 153
-3.742718 25.618586 -0.536816 219 202 169
-3.159233 24.928743 -0.532682 121 92 43
-4.522665 26.184238 -0.597047 121 96 62
-4.522665 26.184238 -0.597047 121 96 62
-5.697177 26.445068 -0.628257 202 173 125
-4.646915 26.313053 -0.971473 208 196 165
-2.656675 24.581125 -0.089852 232 217 182
-4.159269 25.862974 -0.160011 234 211 172
-8.155234 27.705603 -0.666890 232 206 165
-7.912227 26.778215 -0.742276 0 0 0
-6.244329 26.084490 -0.741586 237 213 174
-2.934522 24.817022 -0.753191 222 204 170
-3.858306 25.709339 -0.447421 229 206 173
-5.171928 26.230711 -0.549692 192 162 128
-4.499143 26.265905 -0.214275 221 190 147
-4.274323 26.008091 -0.718152 216 197 166
-4.093184 25.800955 -0.743121 129 112 82
-4.096604 25.957766 -0.747052 129 112 82
-5.340830 26.794559 -0.492721 216 193 164
-6.365761 26.951990 -0.633133 194 168 133
-4.918803 26.522655 -0.833582 227 208 174
-3.655876 25.387280 -0.617054 225 207 176
-5.298322 26.912191 -0.334199 192 171 124
-6.450339 27.663895 -0.034112 241 223 181
-6.909705 27.965405 -0.076108 222 203 173
-7.057748 28.063963 -0.099146 224 211 172
-6.802338 27.848261 -0.125656 177 154 148
-7.173682 28.159208 -0.129727 223 208 155
-7.103852 28.129745 -0.175145 227 210 174
-7.447002 28.285416 -0.205897 235 228 197
-7.252128 28.169434 -0.210367 207 190 163
-5.792187 27.204611 -0.204442 223 185 159
-5.887630 27.277660 -0.224278 233 218 175
-6.640633 27.812893 -0.245948 237 211 168
-5.915471 27.315165 -0.233968 198 163 136
-5.915471 27.315165 -0.233968 198 163 136
-7.108054 28.006529 -0.256654 228 206 166
-6.716036 27.839811 -0.251108 219 198 164
-7.421346 28.244631 -0.263837 198 189 149
-6.327117 27.582062 -0.271043 201 150 102
-6.327117 27.582062 -0.271043 201 150 102
-7.289316 28.196955 -0.287977 228 209 172
-7.083590 28.070177 -0.285295 239 217 177
-6.897608 27.973989 -0.293379 189 145 121
-6.897608 27.973989 -0.293379 189 145 121
-6.504749 27.697243 -0.287845 236 217 174
-6.504749 27.697243 -0.287845 236 217 174
-7.495626 28.301689 -0.306778 223 207 171
-6.420543 27.644062 -0.309114 228 210 174
-7.565993 28.356791 -0.330011 224 209 162
-6.052812 27.405930 -0.305361 226 202 153
-6.702018 27.811462 -0.321822 224 208 168
-5.608775 27.060368 -0.302787 231 211 174
-7.549591 28.324963 -0.336131 185 142 128
-7.663070 28.384037 -0.339911 226 203 164
-6.760438 27.914312 -0.324675 232 207 164
-6.591039 27.776968 -0.321857 229 209 171
-6.511732 27.688513 -0.321219 238 208 162
-6.511732 27.688513 -0.321219 238 208 162
-5.690863 27.145632 -0.306562 231 212 172
-7.457728 28.287178 -0.346821 237 212 175
-7.241344 28.168875 -0.361925 218 203 167
-7.210945 28.154194 -0.381867 199 178 146
-6.017665 27.381025 -0.378435 201 193 164
-6.098215 27.432144 -0.386488 216 200 171
-7.388198 28.217041 -0.410457 228 199 163
-7.388198 28.217041 -0.410457 228 199 163
-7.413852 28.221186 -0.412643 223 209 165
-6.472192 27.651613 -0.398865 207 198 169
-6.041459 27.369091 -0.391970 151 108 75
-5.661004 27.085974 -0.389675 165 133 120
-6.124632 27.449091 -0.415168 204 185 147
-6.602757 27.742741 -0.427196 179 138 100
-6.602757 27.742741 -0.427196 179 138 100
-7.179148 28.067408 -0.440394 203 187 142
-6.399809 27.639889 -0.431180 219 194 151
-7.915995 28.520832 -0.461430 223 207 172
-7.106067 28.032368 -0.452637 181 148 117
-5.759650 27.180864 -0.429612 215 187 135
-7.912230 28.511932 -0.478479 221 195 142
-6.795124 27.874292 -0.463397 156 112 84
-6.384327 27.626667 -0.456998 128 109 79
-5.534220 27.031939 -0.442868 229 200 159
-7.465129 28.261881 -0.482209 161 128 115
-5.899764 27.285652 -0.458481 191 184 151
-5.835236 27.250641 -0.458116 198 180 144
-7.553122 28.309649 -0.488297 217 193 142
-7.399924 28.045761 -0.483813 161 123 95
-7.897141 28.476301 -0.498427 196 177 155
-7.258513 28.158266 -0.490156 214 193 152
-6.703049 27.807816 -0.483356 199 178 143
-6.703049 27.807816 -0.483356 199 178 143
-5.958838 27.343203 -0.470564 222 202 151
-7.274619 28.148335 -0.497219 163 141 126
-7.274619 28.148335 -0.497219 163 141 126
-5.910909 27.279207 -0.484652 169 132 101
-7.073380 28.026506 -0.507832 153 117 100
-8.208275 28.687954 -0.530469 220 203 167
-8.155967 28.680250 -0.530390 208 199 147
-6.575464 27.719200 -0.514837 130 80 43
-6.042932 27.373312 -0.505747 151 107 72
-5.844195 27.268587 -0.502508 213 165 146
-7.754770 28.435806 -0.534553 224 204 166
-7.225885 28.104458 -0.527812 215 199 158
-6.194494 27.463663 -0.510024 128 97 65
-7.140770 28.092848 -0.535189 194 144 134
-6.939922 27.974836 -0.539280 137 109 80
-5.594502 27.061508 -0.513672 226 205 154
-6.716960 27.809860 -0.536205 128 95 57
-5.532158 26.335398 -0.509555 227 207 168
-5.639849 27.091925 -0.519546 227 207 168
-7.258712 28.136307 -0.550049 225 200 155
-7.218473 28.118200 -0.549971 179 140 107
-6.246360 27.466118 -0.532871 148 111 79
-6.246360 27.466118 -0.532871 148 111 79
-8.098654 28.602093 -0.567041 203 193 162
-8.098654 28.602093 -0.567041 203 193 162
-7.567062 28.295635 -0.560359 162 124 95
-8.153974 28.607050 -0.572776 186 174 137
-7.362767 28.210199 -0.561733 169 133 89
-6.974761 27.974520 -0.555593 200 179 125
-6.974761 27.974520 -0.555593 200 179 125
-6.872396 27.880228 -0.553739 133 108 78
-7.870254 28.451944 -0.576627 227 206 163
-8.105893 28.609982 -0.589180 181 169 136
-5.656677 27.108603 -0.558022 150 126 113
-5.656677 27.108603 -0.558022 150 126 113
-6.319616 27.542679 -0.575262 131 105 77
-6.148233 27.476164 -0.574130 228 206 157
-5.948918 27.282045 -0.569875 154 153 135
-7.339508 28.180042 -0.600221 236 213 165
-5.850667 27.225744 -0.575586 221 197 154
-5.850667 27.225744 -0.575586 221 197 154
-7.389252 28.211775 -0.605388 193 154 128
-6.975760 27.967720 -0.614860 129 98 63
-7.798172 28.470396 -0.629418 181 142 115
-5.721831 27.104757 -0.593515 221 202 160
-5.963750 27.320820 -0.601174 192 155 134
-6.583828 27.681538 -0.618255 199 186 138
-8.168609 28.627035 -0.646289 216 193 156
-7.459229 28.243065 -0.640436 225 204 151
-8.009783 28.518343 -0.654186 199 170 130
-6.473525 27.628946 -0.630549 221 202 148
-8.391391 28.694122 -0.670752 205 173 148
-7.157904 28.086180 -0.654405 117 91 66
-8.424236 28.744846 -0.675063 223 201 160
-7.182471 28.063433 -0.656730 181 160 118
-7.454283 28.238230 -0.665346 207 177 131
-8.206861 28.668169 -0.682311 221 205 172
-8.147660 28.618008 -0.685492 190 189 155
-6.294645 27.531746 -0.660703 226 214 178
-7.433375 28.246317 -0.682680 174 139 123
-6.799755 27.827509 -0.675618 160 127 98
-7.819314 28.441965 -0.693169 228 206 169
-8.353251 28.719755 -0.710688 219 204 169
-7.375492 28.196241 -0.697390 164 133 95
-6.568394 27.707081 -0.683425 221 205 163
-5.814962 27.197052 -0.668724 148 120 112
-8.353584 28.701290 -0.720054 205 165 139
-8.215812 28.608669 -0.719241 205 195 165
-7.803795 28.429556 -0.717427 185 133 124
-7.980282 28.499928 -0.721124 232 214 177
-7.051068 28.020149 -0.721283 138 114 90
-8.285856 28.679331 -0.746164 227 203 163
-8.161999 28.606071 -0.746939 153 129 111
-8.251787 28.635281 -0.754495 229 199 153
-6.229607 27.476564 -0.720330 140 122 120
-8.013901 28.502026 -0.754968 235 213 173
-8.248368 28.656891 -0.761977 168 139 102
-8.248368 28.656891 -0.761977 168 139 102
-8.175900 28.602121 -0.760539 222 202 162
-8.344780 28.701128 -0.765530 227 205 162
-8.551253 28.775339 -0.788553 228 209 172
-8.428752 28.736460 -0.788857 238 218 176
-6.863365 27.867613 -0.765459 223 203 156
-7.603245 28.312845 -0.778546 145 113 76
-7.814289 28.422991 -0.797481 198 184 152
-7.814289 28.422991 -0.797481 198 184 152
-7.840837 28.428984 -0.799973 167 141 131
-6.936900 27.928211 -0.785063 180 135 90
-7.880145 28.457260 -0.811043 197 178 143
-7.395463 28.197168 -0.809864 186 155 130
-8.349951 28.687311 -0.833222 223 207 173
-8.540282 28.825201 -0.843938 215 200 155
-8.508941 28.833406 -0.844793 133 109 96
-6.273839 27.518475 -0.830774 233 212 178
-6.273839 27.518475 -0.830774 233 212 178
-5.981762 27.328371 -0.827917 233 209 162
-6.741872 27.801943 -0.844508 232 216 177
-6.975432 27.938318 -0.850242 216 203 171
-8.374861 28.661089 -0.874716 127 112 98
-5.416051 26.893705 -0.848368 172 147 140
-8.563040 28.768450 -0.904599 206 177 131
-8.186639 28.611700 -0.901610 199 188 159
-7.686821 26.569929 -0.845869 190 185 157
-7.096063 28.028351 -0.886104 227 201 162
-6.769092 27.860815 -0.884947 227 209 173
-7.337683 28.163418 -0.896690 224 210 171
-8.468270 28.697559 -0.920800 183 144 121
-8.536482 28.775833 -0.935784 127 101 90
-6.196871 27.440527 -0.897122 213 190 150
-5.708552 27.126331 -0.887999 233 213 171
-6.469884 27.638323 -0.908431 247 222 181
-8.595101 28.815392 -0.953954 137 103 76
-8.435461 28.720158 -0.954119 175 150 105
-5.359167 26.887571 -0.915673 235 215 167
-5.993534 27.303942 -0.930657 196 153 127
-5.993534 27.303942 -0.930657 196 153 127
-5.916296 27.254330 -0.934667 235 213 170
-7.967144 28.482143 -0.976430 153 129 88
-7.856437 28.428497 -0.992200 174 144 116
-8.580321 28.791275 -1.005771 159 141 119
-6.081981 27.336607 -0.963650 220 197 161
-5.950683 27.249924 -0.966135 216 191 169
-6.948461 27.912071 -0.994724 232 212 172
-6.026410 27.349916 -0.980793 197 184 146
-8.347027 28.704821 -1.026621 128 99 72
-7.051057 27.980505 -1.019534 228 207 154
-6.124334 27.354227 -1.014011 235 212 167
-7.970551 28.459660 -1.052356 121 93 63
-6.400573 27.667025 -0.032689 247 227 186
-7.013097 28.030899 -0.135210 223 204 165
-6.884964 27.966242 -0.135278 236 213 173
-6.919084 27.959661 -0.142519 231 210 172
-6.606163 27.773611 -0.137288 208 180 146
-7.339732 28.151731 -0.161139 242 231 201
-6.647408 27.827303 -0.155846 223 213 172
-7.053554 28.090784 -0.180706 235 214 174
-6.564926 27.748501 -0.172937 169 126 106
-6.564926 27.748501 -0.172937 169 126 106
-7.100114 28.034323 -0.211747 224 210 165
-6.889871 27.956821 -0.210594 229 212 174
-7.164970 28.136902 -0.218279 200 156 131
-7.060373 28.059744 -0.220462 233 212 170
-7.426642 28.270508 -0.231087 161 132 101
-6.467232 27.675262 -0.214293 210 155 132
-6.981434 28.002689 -0.255019 228 210 167
-5.937711 27.325125 -0.245880 232 210 175
-7.336176 28.238943 -0.274717 198 197 144
-6.184150 27.478941 -0.258075 212 185 151
-6.184150 27.478941 -0.258075 212 185 151
-6.806852 27.851534 -0.270796 235 213 158
-6.933990 27.960592 -0.277326 223 203 169
-7.495584 28.305391 -0.288303 222 205 162
-6.130027 27.455984 -0.268173 171 127 86
-7.026036 27.993093 -0.285184 238 207 171
-6.915094 27.961470 -0.286166 229 212 174
-6.987256 27.981014 -0.289162 197 164 137
-6.400099 27.641212 -0.279050 234 205 168
-6.365749 27.609632 -0.282298 154 125 105
-6.393254 27.615017 -0.290991 171 124 87
-7.357641 28.224617 -0.309087 233 211 170
-7.265388 28.178333 -0.309554 232 202 168
-7.519435 28.322069 -0.336030 228 201 162
-7.519435 28.322069 -0.336030 228 201 162
-6.477822 27.740744 -0.324035 226 199 159
-6.624464 27.764326 -0.353284 237 213 173
-7.298004 28.151138 -0.373453 230 210 169
-7.344108 28.220564 -0.378632 228 207 163
-6.505706 27.806675 -0.369427 221 203 163
-7.727123 28.404541 -0.397377 224 201 158
-7.445968 28.247225 -0.398506 230 206 163
-7.888477 28.497463 -0.412439 226 205 161
-7.199677 28.096100 -0.399882 170 145 119
-7.354726 28.216570 -0.406224 135 108 79
-6.962299 27.974215 -0.402749 160 125 87
-7.589777 28.323660 -0.414006 156 123 93
-7.555623 28.333265 -0.418145 220 207 170
-5.968140 27.292297 -0.397837 179 139 128
-5.968140 27.292297 -0.397837 179 139 128
-6.082623 27.389154 -0.401892 202 184 150
-7.565573 28.327272 -0.429435 182 154 126
-5.965862 27.305752 -0.407288 219 201 159
-7.715940 28.406216 -0.437638 234 216 166
-7.844409 28.498652 -0.442865 221 205 169
-6.043578 27.369146 -0.425812 219 197 156
-7.744596 28.442690 -0.458746 149 111 86
-7.536848 28.308987 -0.456679 217 196 158
-7.216742 28.007923 -0.450420 224 201 162
-7.188236 28.068169 -0.450198 157 122 94
-8.085958 28.599154 -0.480665 218 209 181
-5.828461 27.215912 -0.444859 155 128 97
-6.745609 27.855816 -0.465243 160 122 91
-6.727869 27.723551 -0.462791 160 122 91
-8.048835 28.600037 -0.486033 222 190 147
-7.909357 28.518837 -0.488527 158 130 98
-7.909357 28.518837 -0.488527 158 130 98
-7.874879 28.484447 -0.492670 207 190 154
-6.113818 27.407026 -0.470729 117 87 58
-5.885194 27.231403 -0.466845 155 117 89
-7.513858 28.092070 -0.493663 129 105 90
-8.110330 28.592064 -0.512432 217 211 169
-5.884628 27.278934 -0.476610 212 188 155
-6.292402 27.558859 -0.487881 126 93 55
-8.101774 28.629353 -0.518294 150 120 83
-7.249340 28.151354 -0.508517 212 187 149
-7.031342 27.994049 -0.504392 148 115 78
-6.011038 27.382137 -0.490077 178 156 104
-7.899991 28.507015 -0.524451 158 112 72
-7.295532 27.830700 -0.510024 156 122 96
-5.832144 27.225994 -0.490473 229 209 169
-7.060630 28.041756 -0.515671 199 192 163
-8.186747 28.636040 -0.535730 145 110 83
-7.019428 28.002682 -0.523377 158 126 95
-7.434513 28.243601 -0.532772 232 205 165
-7.434513 28.243601 -0.532772 232 205 165
-6.023952 27.460762 -0.508089 230 200 136
-5.885161 27.257254 -0.512098 200 180 161
-7.741021 28.447407 -0.544268 165 131 111
-7.741021 28.447407 -0.544268 165 131 111
-7.352918 28.195543 -0.545469 169 136 116
-6.036215 27.357986 -0.524445 204 191 154
-5.575227 27.013046 -0.525721 238 212 169
-7.532033 28.300863 -0.560508 169 134 106
-6.041853 27.373196 -0.536301 169 133 95
-7.490754 28.320415 -0.561866 180 136 94
-7.253376 28.138628 -0.559924 160 132 104
-6.566779 27.712719 -0.550606 145 115 79
-6.085165 27.390055 -0.544562 164 130 90
-6.628851 27.726635 -0.555331 123 89 55
-6.038867 27.423483 -0.548069 227 203 158
-6.190444 27.445240 -0.553505 181 171 142
-7.483092 28.254616 -0.586750 225 204 169
-6.780365 27.856955 -0.578329 146 117 81
-8.274700 28.677971 -0.602488 222 201 157
-8.274700 28.677971 -0.602488 222 201 157
-6.482956 27.624996 -0.591797 134 110 75
-6.935221 27.943745 -0.600235 137 100 64
-6.693884 27.803661 -0.602625 111 100 81
-6.393609 27.564083 -0.597711 220 197 140
-7.808637 28.419674 -0.623624 233 211 175
-7.569691 28.301949 -0.620733 178 147 129
-5.751916 27.168171 -0.598745 220 201 164
-6.772691 27.828526 -0.619093 192 181 142
-7.457027 28.251556 -0.631204 162 122 89
-7.967387 28.524456 -0.644440 227 204 166
-7.735460 28.406216 -0.647688 213 197 161
-7.523190 28.263947 -0.646366 149 122 97
-8.324089 28.720375 -0.663122 226 210 175
-7.286242 28.143255 -0.656304 191 178 147
-6.054935 26.311260 -0.618253 156 134 107
-6.762520 27.822666 -0.655770 219 200 159
-7.958728 28.508484 -0.677545 209 195 164
-8.101398 28.541538 -0.680335 222 203 153
-8.570214 28.787474 -0.690555 214 198 170
-5.771831 27.163708 -0.647610 232 211 164
-7.347760 28.183893 -0.687301 146 107 73
-6.957941 26.845249 -0.660549 123 88 61
-6.269013 26.377235 -0.648589 230 219 187
-7.174129 28.079872 -0.687519 114 89 63
-8.424755 28.736526 -0.713080 240 208 157
-6.074549 27.371464 -0.674727 170 140 120
-8.588746 28.826689 -0.724687 208 193 155
-8.588746 28.826689 -0.724687 208 193 155
-8.512114 28.784239 -0.727467 220 199 166
-5.872802 27.246437 -0.683205 180 151 96
-5.273160 25.638462 -0.657519 239 215 165
-5.865301 27.241524 -0.695607 215 195 155
-5.865301 27.241524 -0.695607 215 195 155
-5.962159 27.310183 -0.707384 206 180 147
-5.962159 27.310183 -0.707384 206 180 147
-6.209932 27.469067 -0.712585 232 215 177
-7.747781 28.414293 -0.745805 215 201 153
-6.767223 27.825367 -0.729423 144 116 83
-6.999812 27.941032 -0.734125 204 177 128
-8.252933 28.646856 -0.771830 218 201 166
-7.816465 28.406061 -0.763434 208 192 152
-8.513073 28.772259 -0.779604 228 203 162
-5.825622 27.199350 -0.739583 192 175 152
-6.548307 27.650713 -0.761438 225 209 173
-5.441009 26.974060 -0.741146 184 144 131
-5.441009 26.974060 -0.741146 184 144 131
-6.596042 27.735224 -0.769986 207 191 162
-7.639565 28.271547 -0.790691 201 189 161
-6.140831 27.402794 -0.766599 220 204 167
-5.480142 26.976656 -0.771451 179 167 156
-8.142729 28.585295 -0.819311 159 113 91
-8.142729 28.585295 -0.819311 159 113 91
-6.937014 27.906214 -0.812619 218 202 168
-6.584976 27.682470 -0.810685 165 134 101
-6.816485 27.808636 -0.815682 220 204 169
-6.883063 27.823866 -0.835887 228 213 171
-6.966410 27.946049 -0.840287 156 125 109
-6.966410 27.946049 -0.840287 156 125 109
-6.601514 27.646141 -0.850799 233 212 173
-5.780822 27.130711 -0.847509 177 132 101
-8.540380 28.801992 -0.897856 186 157 132
-8.139754 28.598288 -0.893152 140 114 101
-6.670294 26.071737 -0.820628 233 209 173
-7.707254 26.581915 -0.839657 133 110 91
-7.707254 26.581915 -0.839657 133 110 91
-7.829790 26.583651 -0.842631 196 186 158
-7.157523 27.979469 -0.887092 235 212 171
-8.617175 28.818733 -0.919081 161 136 117
-8.517639 28.779737 -0.921934 162 120 93
-7.377819 28.168095 -0.914824 226 209 178
-7.377819 28.168095 -0.914824 226 209 178
-6.845867 27.876181 -0.907855 236 216 178
-6.508375 27.627819 -0.905810 242 221 185
-6.976659 26.068216 -0.863752 194 147 118
-7.027269 27.945868 -0.919630 242 219 183
