ply
format ascii 1.0
element vertex 1191
property float x
property float y
property float z
property uint8 red
property uint8 green
property uint8 blue
end_header
8.277582 16.736872 0.448959 217 199 170
-1.884165 19.748615 0.476457 238 215 177
2.697888 18.421019 0.464678 143 122 74
8.228307 16.750002 0.447716 141 113 47
0.151285 19.191471 0.468727 216 192 156
-0.091759 19.250942 0.468612 236 216 185
0.141552 19.201666 0.466518 243 219 182
-3.136313 20.123987 0.473111 238 216 181
-0.027127 19.233419 0.464789 237 214 177
4.205230 17.913485 0.450734 232 211 179
10.604663 16.014631 0.431121 191 161 113
10.604663 16.014631 0.431121 191 161 113
-0.134284 19.301231 0.460984 155 124 82
0.079056 19.168591 0.459132 230 207 170
-0.611002 19.395214 0.459860 233 218 193
4.327932 17.918142 0.446152 151 116 82
0.944235 18.964985 0.455229 239 218 187
7.015583 17.083237 0.433098 238 218 185
-1.924236 19.796432 0.454323 236 212 181
8.968849 16.497967 0.423768 229 209 179
-2.244457 19.890173 0.450930 230 211 183
-2.981299 20.071356 0.451182 220 204 170
-3.032343 20.110846 0.451401 231 210 174
-1.985730 19.819920 0.448960 140 97 1
-1.985730 19.819920 0.448960 140 97 1
1.713155 18.671576 0.438799 171 136 83
1.083001 18.892244 0.440042 210 183 154
-2.273813 19.900036 0.447704 233 210 171
6.185199 17.308037 0.424264 139 114 26
-2.729501 20.029772 0.445963 235 208 168
9.355085 16.350403 0.413312 170 132 92
0.445882 19.063604 0.434458 242 221 185
-2.279047 19.902315 0.437627 241 216 179
0.823567 18.915453 0.429468 243 221 186
-3.133303 20.118195 0.437398 232 210 178
8.427677 16.656590 0.409336 160 131 85
8.427677 16.656590 0.409336 160 131 85
1.483542 18.741175 0.425344 228 209 179
8.866954 16.523710 0.407058 229 208 171
-0.263648 19.279200 0.429435 236 216 177
1.797187 18.654783 0.424053 221 200 167
1.224062 18.830774 0.425070 225 206 174
8.557692 16.626785 0.406345 154 122 79
0.019030 19.192141 0.426895 241 218 182
-1.758396 19.689098 0.429785 237 214 176
-0.889558 19.470184 0.428553 242 214 173
8.479928 16.622194 0.402656 229 213 173
8.759024 16.556526 0.401732 222 205 169
8.009493 16.778543 0.402637 164 130 81
0.255242 19.111214 0.420541 223 210 182
9.129634 16.441008 0.398524 234 211 178
-1.521508 19.672979 0.423815 233 208 171
7.992688 16.783428 0.400808 186 158 116
8.486186 16.650663 0.400012 229 206 171
0.259952 19.091114 0.418338 165 131 83
-0.362779 19.257444 0.417986 239 218 182
-0.230989 19.227827 0.417429 216 191 160
7.474072 16.940828 0.398720 225 206 172
-1.408780 12.864286 0.299652 223 202 171
6.671231 17.178598 0.399242 226 206 174
-0.394664 19.284830 0.414802 227 207 165
2.139737 18.537626 0.409360 238 215 177
-2.433703 19.917698 0.419279 215 194 164
-0.470642 19.342056 0.414222 152 119 81
7.374523 16.989143 0.395831 243 220 183
-1.129945 19.487026 0.413760 228 204 169
0.225669 19.070877 0.410715 241 218 185
-1.184651 19.546757 0.414161 214 195 167
0.309620 19.092876 0.407203 151 133 89
0.309620 19.092876 0.407203 151 133 89
-2.249899 19.854559 0.411874 222 200 170
0.199427 19.076897 0.405427 230 208 171
4.745008 17.750885 0.395065 164 125 63
4.745008 17.750885 0.395065 164 125 63
0.197878 19.089270 0.403292 231 208 167
3.935603 17.997942 0.395879 223 203 171
10.590572 15.990728 0.380182 180 151 103
-1.697605 19.686491 0.407955 227 203 172
-3.006311 20.090528 0.410507 234 209 172
-2.499668 19.872919 0.408450 161 130 84
-2.234556 19.837404 0.408573 216 197 161
-1.825647 19.712305 0.407006 216 193 163
-1.633873 19.659243 0.404856 230 208 173
1.906812 18.627748 0.397001 233 209 170
8.403479 16.644032 0.381781 229 213 183
-1.443520 19.589163 0.402934 235 214 180
-2.429074 19.921572 0.404263 151 126 73
-2.429074 19.921572 0.404263 151 126 73
2.629694 18.377838 0.392833 234 217 186
1.864841 18.579584 0.393616 235 208 175
1.225713 18.819122 0.394561 245 227 193
-2.215896 19.830627 0.401153 242 219 184
2.995502 18.287682 0.389970 240 219 181
-3.187865 20.142017 0.402958 238 216 176
1.602254 18.683418 0.389033 145 95 12
1.602254 18.683418 0.389033 145 95 12
4.062535 17.957985 0.384234 233 210 175
1.712076 18.672636 0.388782 231 210 172
0.143759 19.137037 0.390030 244 221 188
0.293005 19.102501 0.389642 232 210 173
0.087216 19.126904 0.388783 235 211 176
-1.781607 19.718445 0.392287 231 208 172
2.401814 18.452778 0.383632 235 213 172
1.839281 18.612896 0.383759 201 186 157
-1.983688 19.795103 0.391531 236 212 177
-3.199360 20.123135 0.391057 202 183 154
-2.979575 20.018410 0.389698 153 120 81
-2.979575 20.018410 0.389698 153 120 81
-0.884954 19.445869 0.386232 236 217 182
1.703181 18.645256 0.380594 192 161 133
1.788480 18.619568 0.380028 243 223 194
-2.721281 19.983194 0.388530 194 171 138
-1.980744 19.773561 0.387298 238 215 179
0.104303 19.129162 0.382830 237 213 180
2.108057 18.530384 0.377829 225 208 175
-1.805313 19.721405 0.385578 160 131 90
-1.805313 19.721405 0.385578 160 131 90
-1.364180 19.540384 0.383779 222 200 161
-0.073243 19.155649 0.381220 227 204 166
1.405339 18.755159 0.378869 241 216 180
10.620403 15.985817 0.360155 145 121 74
10.620403 15.985817 0.360155 145 121 74
1.667896 18.676844 0.377590 145 113 80
2.225470 18.497576 0.376017 174 140 113
-1.370762 19.579393 0.379508 144 105 56
2.694152 18.376249 0.371869 249 224 187
-2.220985 19.836588 0.380723 144 107 48
1.604828 18.673550 0.372864 226 209 181
-0.846983 19.405649 0.377272 239 221 193
-1.833162 19.712694 0.379045 233 212 172
-1.660565 19.667940 0.378130 227 205 174
0.182854 19.129612 0.374579 217 200 162
0.075039 19.108942 0.373958 136 96 15
1.513280 18.729429 0.370214 240 221 180
-0.431242 19.303320 0.373336 211 200 168
-1.007650 19.451286 0.372332 229 205 168
7.412632 16.919228 0.355643 239 214 178
0.015571 19.177320 0.370203 163 124 72
1.641237 18.676294 0.365725 167 135 102
-0.251909 19.224798 0.368638 231 214 179
0.874822 18.920208 0.365636 214 207 177
1.931760 18.560337 0.363027 239 220 188
0.318007 19.095537 0.366176 206 187 154
-0.407776 19.288345 0.367084 233 209 173
-0.824307 19.378368 0.367075 220 203 169
-1.486839 19.620655 0.367330 171 130 70
9.782558 16.211004 0.344449 230 207 178
1.826391 18.613619 0.359303 237 216 179
10.658546 15.909229 0.341790 215 203 174
4.891256 17.682398 0.353007 243 219 183
3.977527 17.930521 0.353912 140 105 13
-2.786342 19.942822 0.365890 233 210 174
6.181123 17.306282 0.349772 240 219 182
9.185476 16.375368 0.342992 241 220 187
9.709755 16.223127 0.342049 146 98 8
3.157266 18.223249 0.354111 233 210 175
7.031004 17.060022 0.346745 237 218 181
0.896686 18.881153 0.357351 176 131 71
6.223077 17.250111 0.346827 218 202 166
8.055013 16.746372 0.343404 233 209 178
0.754349 18.950758 0.355733 222 203 171
1.815392 18.600536 0.352538 152 118 71
-2.880395 20.017080 0.360707 232 210 173
10.109572 16.111710 0.336865 221 203 172
4.604412 17.771032 0.346277 244 220 179
1.792958 18.628922 0.350967 225 202 165
-1.357466 19.580591 0.356396 232 212 178
9.570638 16.258064 0.336027 193 186 174
-1.678815 19.657047 0.356220 244 221 180
-2.217152 19.808123 0.356568 237 210 174
6.899982 17.066055 0.340270 234 214 182
-1.574869 19.606506 0.355081 232 206 174
-1.574869 19.606506 0.355081 232 206 174
2.075686 18.562050 0.348646 235 217 176
-2.967163 20.020357 0.356543 219 203 172
9.279378 16.377941 0.334892 220 199 166
1.946986 18.552048 0.347071 236 214 180
-3.066696 20.072823 0.356012 219 191 157
-2.117955 19.799784 0.354360 213 194 165
1.175495 18.804321 0.348243 220 197 169
2.068089 18.526688 0.346568 159 127 62
5.567924 17.516012 0.339636 232 212 176
7.183301 16.983461 0.335226 177 135 76
2.597783 18.358257 0.342728 222 202 172
8.202543 16.680775 0.332759 238 221 192
10.365289 15.996589 0.327568 239 220 188
5.826325 17.360912 0.334483 238 211 177
3.345181 18.149746 0.337543 171 146 102
-2.124317 19.777327 0.346383 232 213 177
3.439456 18.123253 0.336524 149 111 19
9.042567 16.402380 0.325636 234 216 182
5.932297 17.365711 0.330657 235 213 181
1.738153 18.610226 0.337174 198 188 155
-2.162093 19.794666 0.344013 242 214 181
-1.921965 19.697752 0.343348 239 214 180
10.616755 15.930198 0.321976 219 198 164
8.832294 16.482582 0.324892 216 200 165
-0.822065 19.361412 0.340669 217 203 175
1.400736 18.698238 0.336810 140 108 38
-2.678677 19.942875 0.342948 242 228 193
1.811144 18.604733 0.335520 205 194 164
-2.554737 19.898703 0.342143 234 211 175
-2.493537 19.853640 0.341947 237 220 186
-2.384088 19.847120 0.341905 157 133 79
-1.993130 19.746891 0.341569 222 203 168
-2.192683 19.760647 0.340611 220 197 160
-2.343550 19.812883 0.340591 233 209 179
10.448182 15.997400 0.319673 248 226 197
1.622157 18.634314 0.333758 206 190 166
10.109862 16.101145 0.319799 235 213 174
-1.457060 19.549940 0.337487 218 191 156
-3.031466 20.057106 0.340394 229 209 171
1.465942 18.686565 0.331539 210 196 162
1.951803 18.539778 0.330880 211 196 165
-2.567264 19.916618 0.335827 235 212 178
-2.986103 20.013018 0.335932 215 196 163
7.225023 16.951063 0.318610 158 123 41
4.752550 17.709280 0.322380 225 210 172
4.022357 17.931730 0.323348 149 121 71
-2.267427 19.829424 0.332723 232 207 172
10.745929 15.926900 0.312322 231 208 174
10.091858 16.129309 0.312322 155 122 74
2.664778 18.304270 0.322961 231 205 166
-2.116037 19.781740 0.328735 224 199 168
-1.408809 19.559071 0.326839 174 133 79
9.982596 16.118086 0.308163 224 202 169
1.710220 18.592499 0.320492 159 117 88
7.420886 16.896858 0.311559 239 217 181
1.774071 18.581055 0.319808 152 119 70
2.364557 18.414551 0.318758 237 218 186
10.136071 16.080898 0.307378 239 217 189
1.400667 18.702578 0.320181 230 214 190
3.751949 17.964586 0.315691 156 115 76
8.666590 16.521915 0.308577 230 208 172
-1.599411 19.586323 0.323344 227 204 167
3.886092 17.991287 0.315151 218 201 169
7.355102 16.937807 0.309331 225 204 170
1.482891 18.694511 0.317857 202 184 155
10.162438 16.062244 0.303999 196 178 149
7.570347 16.854136 0.307424 223 204 183
8.304052 16.634512 0.305448 231 209 178
-1.125848 19.447691 0.319164 211 189 165
9.307543 16.305847 0.302595 206 184 148
1.352395 18.730995 0.313865 136 110 50
3.273060 18.153131 0.311092 147 120 73
-0.255993 19.198008 0.315771 150 129 91
-2.963041 19.974987 0.318611 156 137 96
2.124959 18.497309 0.310980 148 116 43
3.755439 17.983473 0.307674 134 105 32
4.059463 17.869923 0.306500 163 140 100
5.101620 17.585489 0.303910 199 188 159
2.074350 18.483643 0.307126 228 208 180
7.564119 16.840950 0.298990 156 128 80
8.528518 16.549246 0.296203 226 206 173
-2.028129 19.711229 0.311035 218 199 168
-2.029788 19.699270 0.309055 145 116 64
-2.029788 19.699270 0.309055 145 116 64
0.189236 19.054148 0.306030 155 117 76
4.986505 17.607796 0.299186 206 194 165
-1.218610 19.479937 0.307648 245 224 185
-0.129451 19.174397 0.306201 197 175 139
-0.129451 19.174397 0.306201 197 175 139
0.140840 19.085804 0.305480 221 201 169
-0.646647 19.305876 0.306034 186 173 146
10.444077 16.005106 0.291405 218 194 160
2.729094 18.311674 0.298238 225 215 190
-0.855936 19.345337 0.302528 189 177 148
-0.523224 19.246811 0.302272 141 110 73
-2.722625 19.951754 0.304984 236 217 186
-1.139408 19.437046 0.302003 226 203 173
-1.912989 19.714941 0.303435 235 212 179
-3.192372 20.083248 0.302343 213 196 169
6.904562 17.045441 0.285862 169 156 122
1.996612 18.527321 0.290315 150 117 71
8.699194 16.511509 0.281111 233 210 182
-1.293156 19.463057 0.292890 118 92 38
9.206427 16.350559 0.279398 147 118 76
-2.890748 19.994602 0.294849 236 214 185
-2.890748 19.994602 0.294849 236 214 185
-1.424345 19.510313 0.292104 227 211 181
8.777676 16.480778 0.278438 213 193 165
7.543015 16.834316 0.276422 175 145 98
-0.882555 19.394501 0.285625 231 209 179
-1.719321 19.584364 0.284364 230 210 174
0.070544 19.051172 0.281555 217 201 170
6.193514 17.231318 0.272218 206 194 170
7.198340 16.950775 0.270961 217 197 166
-2.187032 19.735922 0.281098 226 209 177
6.778342 17.081285 0.270728 150 118 76
7.301772 16.910439 0.269946 146 118 81
-2.147739 19.745996 0.280027 177 154 105
0.890502 18.850245 0.275470 216 201 173
8.972692 16.426655 0.266312 204 178 156
0.412768 18.980204 0.274762 228 210 180
6.470216 17.170225 0.266085 206 190 159
6.470216 17.170225 0.266085 206 190 159
-2.849485 19.930622 0.273879 235 209 170
6.773352 17.070889 0.262641 193 177 148
-0.454803 19.243517 0.269790 222 197 162
0.501465 18.945129 0.268702 230 213 180
8.785522 16.456205 0.256953 220 209 179
8.003008 16.698257 0.255517 151 121 75
-1.184494 19.442436 0.263329 138 120 42
-0.201023 19.155399 0.260941 240 219 185
-1.887745 19.648718 0.261430 225 205 174
1.837767 18.558249 0.255871 214 199 178
10.405201 16.119118 0.479168 235 215 180
6.295659 17.351439 0.489053 254 244 214
6.532322 17.279572 0.485923 241 216 179
4.764416 17.823914 0.488919 166 129 74
10.498842 16.073565 0.466327 237 213 175
6.795506 17.174627 0.470683 240 216 180
0.517855 19.057259 0.487864 243 219 182
8.545012 16.645792 0.462992 238 215 177
10.216737 16.138725 0.457483 235 212 171
5.647860 17.540781 0.471005 241 217 182
-2.070786 19.837553 0.492312 242 220 185
7.521262 16.965387 0.464079 181 143 71
0.150541 19.191301 0.484061 245 222 183
0.294042 19.152178 0.484079 243 218 180
3.617144 18.140409 0.472029 190 161 126
7.555927 16.947336 0.458904 150 118 90
3.575338 18.146667 0.469480 239 216 179
9.818301 16.276648 0.445099 159 139 93
-1.317831 19.619242 0.475512 248 223 180
7.675502 16.904976 0.450088 236 212 172
10.788386 15.955786 0.438170 228 210 176
8.644787 16.586113 0.443866 234 212 177
10.462936 16.061224 0.438715 200 185 161
10.301723 16.086271 0.438245 188 158 115
0.398679 19.080734 0.465664 246 223 190
8.135921 16.754597 0.443893 228 215 184
-0.091539 19.239880 0.466868 156 121 77
-0.101437 19.217987 0.464542 226 212 179
0.223289 19.152948 0.460700 238 219 181
0.280208 19.155399 0.460891 232 211 171
4.309286 17.925972 0.444489 235 212 183
10.628867 16.005859 0.426585 225 201 168
1.640150 18.702124 0.450960 139 111 23
1.504027 18.778370 0.451505 159 127 79
-0.502242 19.360191 0.453876 246 218 180
8.894272 16.536135 0.428353 218 194 168
-0.955398 19.467474 0.452910 242 214 171
8.802496 16.545319 0.426164 236 214 175
-2.777452 20.034945 0.456498 187 161 111
-3.141791 20.133469 0.456854 238 213 175
2.328149 18.512617 0.442297 228 202 163
7.165144 17.051514 0.428605 181 146 98
8.052319 16.773010 0.424981 244 225 191
-2.005295 19.806307 0.450863 228 208 177
1.369623 18.809551 0.442862 239 217 178
-2.943604 20.056866 0.451413 166 125 64
-2.943604 20.056866 0.451413 166 125 64
10.332775 16.095085 0.417448 221 200 164
1.647380 18.705683 0.440346 232 213 175
5.112592 17.640867 0.430404 235 214 181
-1.351815 19.616062 0.446674 241 215 176
4.752203 17.775473 0.431031 238 213 176
10.562620 16.012066 0.414596 230 210 173
0.431998 19.046434 0.440662 234 211 182
1.275533 18.764290 0.437645 225 196 159
5.060547 17.640381 0.427263 235 213 178
1.798208 18.668407 0.435152 200 170 134
8.345610 16.671404 0.416689 191 161 116
-1.136038 19.518627 0.440320 240 214 175
9.589535 16.296955 0.412191 151 93 3
1.763640 18.646313 0.431318 235 217 182
7.630761 16.908735 0.416757 229 212 174
1.814886 18.658009 0.431287 224 196 159
-2.448191 19.914085 0.438524 237 214 175
-2.518747 19.930916 0.437411 239 214 177
0.976136 18.853432 0.428735 240 218 185
1.894776 18.602842 0.425887 213 191 141
-2.436063 19.930761 0.436381 203 177 128
6.662694 17.181448 0.414420 191 174 145
8.737747 16.555794 0.408750 153 115 56
8.690845 16.564772 0.408079 223 204 169
-2.314963 19.873440 0.433704 227 209 174
8.687281 16.579275 0.405968 148 118 63
5.389713 17.564028 0.413177 178 149 104
0.167687 19.172642 0.426105 247 222 183
-1.052400 19.515123 0.427705 235 214 181
8.725164 16.563805 0.402904 134 108 18
0.789593 18.967184 0.419409 228 204 168
2.192875 18.487606 0.415271 234 211 172
-1.453258 19.605686 0.424040 196 165 134
-0.606384 19.383093 0.422505 240 217 182
-0.051864 19.175934 0.420303 226 205 169
-1.917858 19.754086 0.424486 230 202 171
1.232822 18.821117 0.417423 247 225 190
-0.878127 19.466515 0.420766 226 205 163
-1.002356 19.487070 0.420259 234 213 185
-0.136458 19.250042 0.418344 203 181 154
0.343596 19.067606 0.416624 214 200 171
-0.785047 19.401844 0.416477 236 219 188
7.644013 16.868053 0.396503 217 203 168
-1.338499 19.598551 0.417512 151 112 57
0.634477 19.002369 0.412540 199 168 125
-2.964369 20.031086 0.419277 148 129 69
0.961085 18.897415 0.410954 177 147 103
0.572270 19.024477 0.411458 223 210 183
1.612291 18.685772 0.408984 150 122 88
7.465100 16.957123 0.395591 242 221 188
-2.929276 20.048370 0.418123 227 204 162
-2.770711 20.002363 0.417883 200 178 130
8.526611 16.618114 0.392011 148 125 94
8.526611 16.618114 0.392011 148 125 94
-0.955061 19.458176 0.413157 230 212 179
-0.523240 19.298504 0.411948 129 97 15
-0.371973 19.261580 0.411150 231 209 167
0.860524 18.911558 0.408895 236 214 179
-1.865934 19.734028 0.414391 227 205 168
0.007135 19.208054 0.410501 225 206 174
1.158340 18.814278 0.407551 223 212 177
0.105631 19.138609 0.409493 231 214 179
1.587572 18.722990 0.406722 242 221 188
0.302264 19.097065 0.409059 229 208 172
-1.099471 19.468906 0.410753 240 211 175
9.956101 16.175648 0.385069 234 212 178
-2.182003 19.805298 0.411891 209 185 142
-2.182003 19.805298 0.411891 209 185 142
-1.857257 19.720182 0.410086 213 190 158
0.461642 19.049181 0.404719 233 212 177
-1.825435 19.744398 0.409381 151 121 75
-1.825435 19.744398 0.409381 151 121 75
-0.992608 19.469810 0.407100 230 210 175
4.313636 17.868832 0.394991 221 202 173
-2.274313 19.874874 0.409775 151 116 66
-2.274313 19.874874 0.409775 151 116 66
-2.063866 19.768538 0.408692 135 102 36
8.222651 16.679377 0.385605 231 210 175
5.254560 17.587152 0.390081 244 225 190
-2.521357 19.889898 0.406521 228 213 185
-1.007941 19.439972 0.402332 232 206 170
0.150351 19.147449 0.399814 240 212 170
-3.039406 20.091766 0.406194 231 209 174
9.413357 16.356119 0.378090 230 203 164
10.509819 16.005938 0.375200 145 108 75
-1.718133 19.672634 0.401802 234 210 175
9.461905 16.304861 0.376917 239 217 183
0.501951 19.006168 0.396451 238 216 178
0.501951 19.006168 0.396451 238 216 178
5.348843 17.568642 0.386352 234 211 174
-2.570015 19.952824 0.403103 216 195 157
1.045983 18.851009 0.394928 226 191 157
-1.445065 19.574394 0.399140 235 211 174
10.110888 16.127644 0.374151 241 220 185
0.703411 18.950859 0.394657 182 150 124
1.138460 18.832878 0.393521 225 202 168
6.539214 17.200022 0.378490 243 218 176
0.286936 19.082733 0.391421 175 142 103
0.585083 19.000689 0.390779 149 116 66
0.467242 19.056328 0.390967 220 203 179
-0.271468 19.265144 0.391784 237 213 177
-2.568765 19.944708 0.395813 220 196 163
8.898335 16.515816 0.371768 245 229 196
-0.336457 19.243431 0.390116 239 219 180
0.464162 19.027330 0.388040 163 123 78
-1.582097 19.620567 0.391892 234 210 172
1.307791 18.829395 0.386605 238 211 178
4.550352 17.792183 0.378675 226 205 167
-2.596443 19.946028 0.391912 215 199 168
-2.972641 20.047159 0.392103 226 205 168
0.454894 19.055368 0.385904 231 210 180
7.210206 17.001247 0.371308 243 221 181
-0.345167 19.274958 0.386610 234 210 170
-2.916819 20.046526 0.390883 158 119 45
9.215431 16.377621 0.365179 243 219 183
8.328433 16.664164 0.367106 144 113 73
0.846711 18.894754 0.381894 233 212 180
9.406915 16.352537 0.364437 231 215 185
0.972005 18.834194 0.380357 228 203 159
0.258818 19.093491 0.381786 231 208 175
-2.436048 19.900558 0.386753 215 195 164
0.859913 18.890635 0.379794 154 116 76
8.057858 16.738384 0.364849 108 78 18
-0.766075 19.413139 0.383061 226 209 171
0.907187 18.912071 0.379077 223 201 160
1.825177 18.642904 0.376600 189 179 147
2.153585 18.542189 0.375753 212 199 163
0.137993 19.140650 0.379175 231 204 170
1.451033 18.727795 0.375575 222 201 177
0.293947 19.107021 0.377948 227 201 164
-3.154790 20.100618 0.383931 227 197 157
-0.100738 19.166410 0.377378 220 199 167
-1.152938 19.489910 0.378296 223 205 172
-0.698051 19.374960 0.377762 124 96 42
0.596388 19.006010 0.375300 179 151 105
-0.924688 19.439274 0.377077 223 205 166
4.399636 17.826996 0.366160 229 206 169
-1.760561 19.667532 0.377734 231 205 169
-1.760561 19.667532 0.377734 231 205 169
10.484105 16.024197 0.354037 234 212 177
-0.450764 19.304270 0.375204 127 101 68
3.767616 18.009417 0.366559 239 217 183
-0.398011 19.267971 0.374325 125 94 15
1.202999 18.809502 0.370765 126 102 59
-0.485065 19.304926 0.373853 210 192 159
-1.069379 19.502735 0.374519 224 204 166
0.742148 18.956749 0.370691 207 198 171
10.455762 16.008802 0.350637 232 209 173
9.860082 16.176443 0.349465 243 219 186
7.364138 16.927422 0.353981 159 129 73
7.364138 16.927422 0.353981 159 129 73
0.534161 18.979326 0.366820 232 217 186
1.075524 18.829950 0.365835 211 204 187
4.861743 17.713961 0.358264 240 216 173
1.509873 18.710161 0.363384 210 193 164
-2.599736 19.943470 0.370041 167 154 120
2.396699 18.439707 0.360212 162 131 106
0.143099 19.130535 0.364180 222 206 182
3.965927 17.967997 0.356525 236 210 178
4.199221 17.843142 0.355056 136 113 82
2.427213 18.427650 0.358404 231 209 175
9.984935 16.139730 0.344119 230 207 170
7.340258 16.955368 0.348596 240 215 174
8.815364 16.494745 0.345066 242 220 185
-1.000781 19.450371 0.362547 173 140 86
0.881110 18.887966 0.359012 228 207 175
9.843813 16.194996 0.342381 227 206 170
3.653667 18.048803 0.353319 131 83 19
-1.744934 19.627207 0.362482 218 198 164
0.542489 18.981726 0.358704 216 198 165
2.473461 18.409204 0.354844 204 186 148
3.859943 17.990646 0.352337 228 208 173
3.859943 17.990646 0.352337 228 208 173
-1.273504 19.522722 0.360708 223 202 164
2.596765 18.389660 0.354224 237 218 179
2.596765 18.389660 0.354224 237 218 179
-1.025749 19.453117 0.359514 224 203 171
0.886883 18.897413 0.355356 235 211 178
3.149666 18.190723 0.350892 177 151 105
4.719565 17.743034 0.348271 239 219 187
6.474559 17.222261 0.345332 238 218 185
4.132071 17.916813 0.348920 124 91 37
6.657601 17.159405 0.343642 235 212 172
-3.125890 20.049078 0.359022 237 208 175
0.243502 19.046200 0.352950 139 117 46
-2.748995 19.970169 0.357588 156 122 90
-0.107951 19.172052 0.352499 119 86 18
8.017025 16.743910 0.338139 234 211 177
-1.068378 19.487225 0.353468 166 130 86
1.063338 18.834934 0.349100 233 213 180
2.838423 18.302504 0.345385 221 202 174
3.806933 17.974047 0.342816 219 201 171
10.403886 16.012970 0.331388 214 185 142
9.416309 16.323603 0.332630 213 197 165
2.710685 18.294973 0.343549 225 208 178
-0.196245 19.210682 0.348636 207 190 158
-0.196245 19.210682 0.348636 207 190 158
2.461090 18.410925 0.342362 150 118 68
-2.780318 19.945492 0.350417 237 214 179
0.736936 18.935738 0.344872 225 207 183
10.077831 16.125917 0.328911 243 218 183
1.056834 18.832775 0.344015 217 201 174
6.832364 17.090767 0.334017 241 218 180
-1.546397 19.585920 0.348011 218 192 157
1.526528 18.695776 0.342595 222 203 173
2.117774 18.514242 0.341293 162 127 81
10.409902 16.002148 0.326812 189 160 112
-2.842063 19.979931 0.348779 225 202 171
0.924724 18.877346 0.342307 194 181 157
5.749512 17.429827 0.333526 207 188 148
-2.725814 19.962940 0.346402 212 183 147
7.775267 16.809160 0.328320 157 126 61
7.370973 16.915833 0.327511 232 215 186
7.973993 16.729704 0.326298 175 144 124
6.919045 17.066013 0.327848 238 221 186
0.877284 18.872751 0.337363 126 105 70
0.586795 18.967054 0.337454 232 212 179
-2.844877 19.982210 0.342992 222 198 172
8.354770 16.601528 0.323587 242 218 180
1.681888 18.627563 0.333570 217 198 166
5.947757 17.352514 0.326859 220 201 170
3.354367 18.125351 0.330382 237 214 174
7.442326 16.912045 0.323858 212 204 181
-3.195160 20.132524 0.340427 214 195 165
-1.090967 19.460508 0.335970 218 194 162
-0.675496 19.302441 0.334470 228 210 171
-0.902320 19.423359 0.335116 177 153 112
9.281029 16.330839 0.316870 238 220 188
7.809845 16.761972 0.317573 234 212 178
-3.101439 20.048082 0.334576 232 209 174
-2.918633 20.004332 0.334399 225 208 174
-0.182368 19.182446 0.329872 194 164 117
-0.182368 19.182446 0.329872 194 164 117
-1.203692 19.496605 0.330855 238 212 174
3.976783 17.932043 0.321604 243 221 184
-2.166735 19.772963 0.331359 234 216 183
2.738431 18.281334 0.323193 237 213 176
7.768179 16.833681 0.316344 240 217 181
8.586126 16.575294 0.314689 215 188 148
10.671888 15.916782 0.310886 228 208 173
4.701144 17.735178 0.320125 223 205 170
9.971957 16.133688 0.311560 231 207 172
-2.246061 19.718885 0.329891 173 141 79
7.417696 16.929279 0.315478 237 213 178
2.871467 18.275579 0.321075 228 213 176
8.268261 16.641443 0.312015 236 214 181
-2.437152 19.848661 0.328155 231 208 169
2.301590 18.452183 0.320915 164 140 109
1.454233 18.695581 0.321304 222 212 188
3.742253 18.007967 0.317762 239 221 186
-2.797845 19.951050 0.327799 232 213 180
-2.797845 19.951050 0.327799 232 213 180
-1.400519 19.559877 0.324940 237 213 177
7.262006 16.943882 0.310795 236 212 175
1.442268 18.679371 0.318960 116 76 7
3.724054 18.029198 0.315710 153 112 33
10.162359 16.088343 0.305976 124 94 45
-2.828998 19.965765 0.325428 168 142 98
4.569048 17.774050 0.314110 232 212 182
-1.041063 19.453896 0.322210 219 202 175
7.611336 16.867096 0.309009 167 122 62
-1.583951 19.553572 0.321442 132 88 0
-0.991082 19.387514 0.320607 177 154 103
1.297488 18.764547 0.317221 147 86 0
-0.291512 19.247519 0.317896 231 210 177
1.960162 18.547108 0.314403 176 139 95
-0.527527 19.268167 0.317540 220 202 167
6.501336 17.148689 0.306836 222 200 166
-0.190414 19.236349 0.317545 185 163 124
-2.007164 19.715832 0.319022 151 127 89
5.679180 17.416859 0.307517 210 191 151
-1.961172 19.731550 0.318582 233 213 178
-0.078514 19.126118 0.314610 220 204 170
4.173169 17.868113 0.308788 140 107 31
-1.879517 19.654724 0.317084 239 214 182
2.375627 18.394953 0.310072 211 193 163
10.752184 15.915107 0.298840 232 211 182
-2.461331 19.872789 0.317299 235 208 165
1.816352 18.605089 0.310684 138 113 68
-0.949807 19.395672 0.313981 236 214 180
-2.765282 19.949333 0.316686 153 129 66
-2.765282 19.949333 0.316686 153 129 66
8.443421 16.607666 0.300738 164 135 55
8.271398 16.649231 0.299709 232 215 183
4.714087 17.718956 0.304490 242 220 187
10.736368 15.896122 0.295636 217 194 163
9.252606 16.352230 0.296554 232 208 171
8.566913 16.545645 0.296607 232 209 176
-1.601096 19.578024 0.309694 165 132 87
-1.710064 19.628834 0.309771 226 201 174
-1.710064 19.628834 0.309771 226 201 174
-0.337768 19.209429 0.307170 213 193 162
2.750395 18.313480 0.302811 217 203 168
9.531460 16.279366 0.293452 226 207 175
-0.614832 19.321299 0.304646 100 68 33
10.585908 15.956326 0.289859 225 210 181
-1.124160 19.422754 0.303576 213 203 171
2.751897 18.292246 0.296971 139 103 44
-1.238060 19.478033 0.301851 243 218 178
6.901510 17.074965 0.290901 242 225 191
9.101047 16.389193 0.287979 222 202 170
4.070676 17.876213 0.292679 238 215 180
6.613564 17.136671 0.289693 233 211 172
9.084487 16.406675 0.286282 135 110 55
-3.104155 20.018431 0.301865 223 205 168
5.227940 17.529333 0.290258 233 216 180
6.568630 17.154352 0.288610 236 213 181
0.347360 19.017565 0.296163 131 92 58
-2.918550 19.986279 0.299902 224 201 165
4.208120 17.847416 0.289831 240 218 183
8.396471 16.605173 0.284395 150 116 81
10.150075 16.051788 0.281792 219 198 164
8.998936 16.418776 0.282848 227 201 165
-1.852708 19.676548 0.296723 230 209 174
9.406086 16.285244 0.281717 222 203 165
0.020863 19.044369 0.292899 246 221 188
-2.646518 19.871162 0.296095 149 114 64
10.168086 16.064278 0.279945 143 118 78
-2.504835 19.818924 0.295243 236 210 168
4.322148 17.820711 0.286542 246 222 185
4.481864 17.752302 0.285295 238 214 181
10.126416 16.073698 0.278555 195 180 152
-2.303172 19.828381 0.293877 222 202 169
-1.219917 19.486000 0.292278 130 75 1
0.315355 19.032446 0.289913 142 109 57
9.427639 16.292265 0.277939 227 209 171
-2.436983 19.778070 0.291779 227 204 165
-1.396824 19.611340 0.291290 144 112 81
0.606908 18.955389 0.287925 139 107 82
6.909757 17.043865 0.279995 239 214 173
-2.287832 19.818449 0.291744 171 138 94
9.091213 16.381844 0.277324 154 124 88
-0.751750 19.363106 0.289479 150 125 83
0.210273 19.032965 0.287679 241 222 186
10.239304 16.036219 0.275817 236 214 184
9.047428 16.384434 0.276399 211 198 168
9.355312 16.280128 0.275598 166 146 119
9.355312 16.280128 0.275598 166 146 119
1.594554 18.640818 0.284873 228 206 175
10.269008 16.007113 0.274491 190 162 129
-2.037581 19.689932 0.288424 235 213 175
1.918213 18.523438 0.283425 129 101 70
-1.355513 19.534916 0.286775 232 207 166
0.772796 18.868359 0.283545 222 203 171
6.792356 17.056934 0.276007 155 124 88
9.245184 16.366480 0.273041 217 200 166
-2.913780 19.982767 0.286516 233 209 173
1.413099 18.647938 0.280238 146 125 92
-2.150138 19.747162 0.284268 235 215 185
-1.904030 19.667974 0.283361 199 184 158
0.343969 19.019083 0.280564 216 200 168
1.030737 18.818829 0.278111 136 107 61
6.512728 17.133049 0.270066 230 210 175
0.965936 18.784786 0.276010 235 221 194
-1.435373 19.512508 0.278596 231 211 177
9.104399 16.380663 0.263071 220 204 173
-1.316187 19.509024 0.273511 229 208 169
4.722036 17.674877 0.265436 221 207 183
-1.402845 19.517075 0.271574 224 204 172
-2.153661 19.743868 0.271886 233 207 174
-1.086074 19.429262 0.270458 150 128 86
8.854407 16.446875 0.259999 235 217 183
7.557898 16.833498 0.260287 219 205 173
-3.152170 20.023066 0.270786 235 211 173
-1.265318 19.464037 0.267795 182 152 120
-1.463378 19.515476 0.267502 222 199 159
8.004774 16.711857 0.257469 192 181 156
8.891740 16.405146 0.256350 230 213 179
-2.664784 19.855185 0.267204 238 214 178
7.954088 16.689493 0.255420 199 186 158
-0.976988 19.359421 0.263705 145 116 65
4.238352 17.816807 0.257369 246 229 196
-0.596862 19.283108 0.262197 243 219 181
2.469314 18.338667 0.258415 237 220 183
0.233632 19.001448 0.260412 146 112 62
0.829044 18.812849 0.259596 203 191 161
8.868425 16.580751 0.485057 235 215 180
6.690898 17.204529 0.481106 240 218 178
-2.025050 19.827744 0.498983 218 193 150
9.702114 16.320400 0.463524 233 211 176
7.884434 16.849323 0.466902 235 214 181
0.644342 19.025108 0.483685 237 215 182
-3.172185 20.186071 0.491457 232 208 172
-1.689801 19.731686 0.487405 242 218 181
7.478322 16.986797 0.461048 234 207 166
3.673163 18.114157 0.471770 189 171 150
8.500915 16.637522 0.452693 242 217 181
-2.730214 20.037304 0.482649 239 216 178
-2.518931 19.969931 0.482361 238 216 178
9.928742 16.226658 0.442926 171 137 84
10.605361 16.013916 0.439478 229 209 175
-2.222986 19.899378 0.475157 237 213 176
8.042721 16.790234 0.445044 220 191 144
9.684032 16.311510 0.438816 180 135 70
1.069553 18.919617 0.462947 238 215 177
10.616609 16.010618 0.433012 218 194 158
3.079036 18.287064 0.450070 234 209 178
-0.454041 19.374645 0.459499 114 79 21
10.722695 15.960106 0.425904 234 209 171
10.722695 15.960106 0.425904 234 209 171
4.165406 17.940138 0.443538 235 213 176
3.068968 18.290291 0.444964 227 211 178
1.449846 18.744642 0.447857 234 207 166
6.606409 17.219807 0.432615 235 210 171
8.266092 16.722601 0.427803 208 193 171
6.788878 17.169090 0.431297 232 210 173
-2.165164 19.837208 0.452902 130 56 0
7.509983 16.925945 0.427398 235 213 177
-2.905868 20.068035 0.453948 231 209 173
5.054555 17.676086 0.431347 238 216 179
6.697551 17.167461 0.426614 232 216 183
-0.664097 19.417814 0.445582 236 215 179
1.874510 18.636475 0.435982 153 117 70
1.651175 18.688200 0.433934 168 130 77
10.733356 15.941741 0.407679 232 210 176
9.428043 16.366465 0.410968 227 207 171
9.599333 16.302828 0.410116 232 210 176
7.669147 16.893248 0.414956 131 98 71
-0.140528 19.264133 0.434545 187 160 100
-3.000412 20.079931 0.440214 237 212 174
8.914214 16.506092 0.410653 228 208 172
7.677220 16.853907 0.411923 221 203 178
8.817082 16.526129 0.408141 156 124 78
-2.628247 19.954773 0.435215 234 209 174
-1.254006 19.546797 0.432115 234 211 175
1.105009 18.837009 0.425438 230 209 167
1.381141 18.781816 0.424801 228 206 170
8.636233 16.603960 0.406473 197 173 126
1.452834 18.743032 0.423883 153 124 75
0.376670 19.078701 0.425781 230 209 172
-2.989906 20.076923 0.432665 237 213 175
-2.640526 19.963760 0.431461 236 212 176
1.374215 18.790350 0.421899 176 141 92
-1.454226 19.619740 0.426886 237 214 176
-2.439941 19.914068 0.429091 208 173 135
0.427467 19.043932 0.420952 230 210 175
9.854780 16.224531 0.396696 236 213 175
-2.198336 19.830036 0.423505 225 202 165
1.900884 18.612846 0.413737 235 211 174
0.614057 19.037685 0.416667 151 108 20
0.614057 19.037685 0.416667 151 108 20
10.687965 15.943613 0.391322 227 206 172
-2.356718 19.890757 0.422017 211 186 139
-1.341333 19.606155 0.420371 224 206 173
0.781641 18.968874 0.415686 233 215 180
7.907441 16.816011 0.398658 151 114 58
-2.628283 19.968987 0.422312 232 205 172
-0.908478 19.468796 0.416784 237 211 172
-1.850210 19.709797 0.417973 236 211 167
-1.977753 19.805525 0.418358 234 213 176
-1.413744 19.602364 0.415789 237 217 184
-2.710109 20.000381 0.418726 167 135 92
-2.710109 20.000381 0.418726 167 135 92
9.254071 16.407871 0.390748 234 212 177
4.103304 17.947535 0.402260 177 144 110
1.376822 18.793379 0.408093 141 117 62
4.269204 17.903599 0.401108 236 216 182
6.248518 17.268719 0.395557 242 218 182
-0.165938 19.255655 0.410076 238 213 176
2.983591 18.288706 0.400185 210 193 161
3.145754 18.214073 0.398235 232 208 169
1.490691 18.739923 0.402199 106 77 38
1.738304 18.644819 0.401281 144 107 66
1.738304 18.644819 0.401281 144 107 66
-1.548482 19.636248 0.406622 155 132 66
-1.486912 19.632248 0.406987 230 209 173
-0.851728 19.408730 0.404728 213 194 166
9.436130 16.346384 0.381881 227 208 172
-0.919771 19.475578 0.403614 232 210 174
2.922297 18.290140 0.395141 236 214 172
-1.912839 19.753582 0.405398 226 203 164
-0.295501 19.261351 0.401756 232 208 174
-2.920449 20.054972 0.406605 221 193 157
8.669559 16.534546 0.379854 234 209 173
-2.869316 20.035839 0.404439 146 110 32
-0.489577 19.315731 0.397720 233 211 171
-0.561349 19.339952 0.396716 232 210 178
1.837182 18.628630 0.391795 138 100 29
0.283288 19.083031 0.394809 229 208 174
-2.592064 19.955269 0.400706 167 137 98
10.111319 16.123650 0.372127 148 99 0
10.446445 16.013899 0.371069 218 197 163
0.532526 18.988251 0.391810 235 218 184
1.819951 18.653677 0.388811 234 217 180
-0.489700 19.304926 0.391971 232 206 166
1.346842 18.777798 0.388429 129 100 59
8.048306 16.758459 0.371991 237 214 180
8.176886 16.722544 0.371607 231 209 172
-3.038560 20.053766 0.392300 230 203 167
0.768342 18.963432 0.385221 236 215 182
8.700713 16.555014 0.368211 168 131 78
7.429063 16.922554 0.370066 163 137 80
8.531174 16.590616 0.367260 236 208 158
1.744723 18.623665 0.379687 241 218 182
2.543113 18.412603 0.376076 163 117 63
-0.983627 19.449942 0.382775 213 191 157
1.615898 18.674076 0.377534 228 203 165
-1.852179 19.708975 0.384096 219 198 165
1.319851 18.779743 0.377864 112 81 26
1.319851 18.779743 0.377864 112 81 26
1.152274 18.824200 0.377313 227 210 184
-2.837425 20.011755 0.383967 116 65 2
6.529684 17.180782 0.363328 226 207 170
6.529684 17.180782 0.363328 226 207 170
5.048777 17.635826 0.366171 243 219 181
1.830609 18.619543 0.372513 202 177 145
-2.653744 19.931683 0.379599 130 88 1
-2.756591 19.970778 0.379414 134 107 73
0.998036 18.846371 0.370756 221 203 162
-2.720026 19.954208 0.377435 240 219 188
0.914560 18.925280 0.369527 231 209 184
0.596955 18.987017 0.367685 232 209 173
-2.691789 20.003517 0.374056 230 205 164
0.762092 18.969578 0.367335 224 202 179
2.315971 18.456024 0.363553 238 215 176
-1.825136 19.701565 0.368856 224 203 170
-2.980313 19.993351 0.368800 239 218 185
10.210176 16.092438 0.344519 229 208 176
1.366454 18.771973 0.360702 221 201 166
10.750611 15.920526 0.342379 219 198 167
1.710149 18.618797 0.358381 180 162 134
2.507676 18.386707 0.356715 241 219 182
9.612523 16.259684 0.342669 219 194 162
0.960515 18.834900 0.357776 236 216 182
1.680619 18.656471 0.356726 231 207 172
6.847520 17.103340 0.347110 237 214 176
-0.015646 19.168745 0.359702 226 205 172
9.972758 16.140337 0.340215 112 82 14
6.190467 17.279791 0.347085 149 122 71
3.362671 18.127720 0.352030 241 218 180
3.362671 18.127720 0.352030 241 218 180
7.729066 16.838243 0.344091 240 218 181
0.150042 19.118822 0.357208 218 199 164
9.989272 16.125002 0.338136 239 220 187
10.542799 15.986020 0.337714 228 208 171
0.938240 18.851040 0.354072 231 208 178
3.586751 18.087925 0.349570 140 118 36
-2.152154 19.794416 0.357704 230 211 179
-1.237009 19.515350 0.356234 231 209 172
-0.441136 19.282009 0.354302 237 216 182
9.171941 16.412445 0.337136 143 120 86
8.095588 16.697456 0.337878 242 217 181
7.140995 16.989832 0.339334 243 220 183
3.029317 18.239264 0.345819 247 233 200
-0.063205 19.139126 0.350953 215 197 160
-0.063205 19.139126 0.350953 215 197 160
6.179402 17.289352 0.339866 223 203 168
7.390934 16.878073 0.337149 243 217 179
0.278565 19.052668 0.350188 229 209 171
-0.358982 19.222511 0.350622 210 200 172
3.179693 18.206236 0.344756 148 114 49
0.286425 19.066624 0.347617 142 117 85
4.772436 17.714092 0.339179 241 219 179
8.588945 16.571732 0.332465 229 207 171
10.428476 15.982821 0.328713 242 220 186
7.272469 16.941095 0.333308 243 227 194
-2.515983 19.921278 0.350299 212 197 166
3.620434 18.073032 0.339622 217 198 164
5.517940 17.492498 0.336108 238 216 179
-1.749971 19.646246 0.347212 135 102 49
0.764510 18.908049 0.342645 115 94 56
0.764510 18.908049 0.342645 115 94 56
7.780093 16.811228 0.330440 236 214 183
10.636663 15.959699 0.325845 234 214 184
6.948937 17.032030 0.331290 214 196 159
-1.958174 19.749958 0.347032 240 215 180
1.066620 18.838413 0.341764 148 116 69
-2.455698 19.898418 0.346458 238 215 176
-1.476562 19.552959 0.344063 238 214 176
1.882264 18.576277 0.338735 216 194 162
8.047114 16.716984 0.328043 226 203 166
1.974401 18.556326 0.338493 198 177 145
6.721114 17.146492 0.330704 147 123 106
6.721114 17.146492 0.330704 147 123 106
10.078580 16.107910 0.322894 227 206 172
7.572402 16.831865 0.326256 119 85 17
-2.947434 20.012352 0.343749 136 109 75
-2.947434 20.012352 0.343749 136 109 75
10.712469 15.922151 0.320994 237 217 183
7.385773 16.898726 0.325088 125 97 53
1.187205 18.796099 0.334295 206 194 165
-1.987868 19.738503 0.339382 151 133 73
-0.879479 19.381437 0.336737 218 203 173
9.836517 16.189190 0.319315 236 209 167
-2.872399 20.001299 0.339962 175 154 110
-2.872399 20.001299 0.339962 175 154 110
8.611308 16.551714 0.320682 244 225 188
-1.703522 19.675438 0.337426 235 209 170
7.469126 16.912962 0.322271 119 92 36
7.469126 16.912962 0.322271 119 92 36
8.942699 16.454641 0.319417 153 125 92
10.455635 15.995879 0.312462 230 209 173
8.436418 16.622696 0.315219 240 219 184
6.337992 17.221024 0.317056 156 127 96
7.512637 16.870403 0.314596 237 214 179
-2.065712 19.769003 0.329253 159 125 80
6.714759 17.103054 0.313172 222 201 166
8.828694 16.493706 0.309355 151 121 75
-2.337789 19.804237 0.325608 229 193 153
1.117617 18.814310 0.320637 235 211 168
9.790608 16.205297 0.306643 235 213 178
9.719002 16.213352 0.306040 244 220 186
2.044318 18.541077 0.316842 172 146 119
6.333153 17.201626 0.309629 219 198 164
8.605858 16.541912 0.306174 216 204 177
-1.920091 19.713682 0.322110 235 212 181
9.914249 16.160357 0.304400 121 76 0
9.914249 16.160357 0.304400 121 76 0
-1.530435 19.571402 0.320887 222 205 174
-1.378658 19.587763 0.320731 232 207 168
-2.672572 19.903404 0.321435 228 205 171
4.161553 17.904560 0.311338 244 225 200
3.960969 17.932642 0.309903 142 113 71
-0.470355 19.276518 0.316297 182 164 136
8.452415 16.570467 0.302998 224 205 164
1.765489 18.587393 0.312262 211 191 162
7.203402 16.982218 0.302811 244 220 183
-3.012835 20.012901 0.317153 237 214 181
10.350660 16.023092 0.298008 215 195 157
-1.946789 19.731771 0.315434 165 133 85
1.891219 18.556036 0.308982 119 94 70
7.741287 16.801325 0.300013 153 108 52
-0.600112 19.378172 0.311907 223 200 169
-1.907175 19.716946 0.312374 221 202 171
-1.907175 19.716946 0.312374 221 202 171
-0.550772 19.286730 0.310061 126 97 59
8.091405 16.677700 0.297115 225 202 170
7.525462 16.849142 0.297247 214 195 161
-1.390346 19.542727 0.309529 241 220 182
-2.583940 19.937218 0.311686 232 210 175
2.801784 18.281435 0.301990 151 114 54
10.533442 15.952825 0.290968 156 125 84
10.533442 15.952825 0.290968 156 125 84
-1.950268 19.708849 0.307468 225 204 170
5.986660 17.319118 0.295368 248 225 188
-2.810558 19.929836 0.307870 147 115 41
-2.018414 19.708935 0.306541 228 209 175
2.829873 18.283287 0.299955 204 183 150
3.324006 18.154694 0.298497 109 86 57
2.644849 18.307903 0.296255 221 207 171
8.813112 16.466375 0.288119 223 205 173
-3.149988 20.039717 0.304165 163 140 102
-2.519416 19.879845 0.303689 240 212 174
7.990614 16.727831 0.289314 181 164 141
-1.780753 19.643692 0.301297 230 207 169
10.520608 15.954443 0.285173 191 170 139
0.143392 19.099718 0.298462 158 125 82
10.311080 16.036793 0.285087 229 206 171
-1.686968 19.621326 0.300395 243 216 179
9.380137 16.308117 0.285573 234 208 170
6.052406 17.279799 0.289170 176 164 135
0.175597 19.034086 0.296086 232 210 169
10.347106 16.022274 0.283502 139 118 79
3.836364 17.975204 0.290809 238 215 180
8.670271 16.521181 0.284771 223 203 165
-1.060191 19.447704 0.296307 226 205 170
8.857465 16.410915 0.282420 216 194 167
8.930340 16.423243 0.282540 228 210 177
6.633606 17.128683 0.284604 241 218 187
4.781073 17.682705 0.286536 217 193 154
6.873190 17.059481 0.283747 241 216 176
0.280076 19.028633 0.291314 207 195 168
8.165187 16.667332 0.281246 240 214 176
-0.745512 19.356066 0.291912 233 218 192
-1.326668 19.521177 0.291013 209 181 142
7.100285 16.971773 0.279326 164 127 73
-2.599555 19.918890 0.290912 239 216 178
-2.939656 19.964808 0.290127 232 214 178
0.121625 19.092028 0.286477 151 119 68
9.151150 16.351971 0.274659 143 114 61
9.501247 16.249977 0.271913 232 209 173
9.830266 16.166357 0.271559 236 214 181
7.558806 16.837664 0.271969 123 90 63
6.523803 17.147079 0.272400 149 112 50
9.677652 16.190355 0.268572 239 217 181
7.143648 16.950953 0.270665 206 182 156
-2.685351 19.899853 0.281714 179 167 138
-2.685351 19.899853 0.281714 179 167 138
-2.750021 19.920879 0.281517 244 220 181
6.627752 17.088469 0.268351 149 120 82
8.841695 16.464348 0.266571 172 140 94
8.407390 16.591484 0.264970 143 108 57
6.742015 17.084169 0.266524 183 171 141
-2.906576 19.955650 0.276941 239 217 181
-1.183054 19.446487 0.273040 196 176 147
6.436090 17.176945 0.264583 212 194 161
4.087958 17.869757 0.264627 144 117 78
8.757780 16.455166 0.258871 157 126 78
-3.022235 20.029823 0.271500 241 216 181
8.437490 16.578077 0.257884 138 114 72
-0.210222 19.130463 0.265599 243 223 191
-2.174847 19.686405 0.263842 228 205 168
7.042570 16.977909 0.254262 200 184 156
-1.120563 19.413229 0.262339 232 209 178
2.004642 18.475517 0.258728 233 215 186
-0.104787 19.117813 0.259972 234 213 181
6.543623 17.266821 0.480692 240 216 179
7.192017 17.073799 0.478607 234 211 174
0.941457 18.992075 0.492596 234 209 173
7.668548 16.901800 0.462747 215 188 153
9.695951 16.285971 0.447601 236 216 181
8.521969 16.657946 0.445856 226 208 177
8.660096 16.609280 0.442033 143 101 37
8.660096 16.609280 0.442033 143 101 37
10.331804 16.107468 0.436072 232 210 172
0.457789 19.097700 0.462408 240 217 180
0.456164 19.061136 0.458436 178 165 149
0.456164 19.061136 0.458436 178 165 149
-0.740369 19.429186 0.456261 185 179 162
-0.740369 19.429186 0.456261 185 179 162
-0.062143 19.243044 0.454503 244 224 185
0.124220 19.170635 0.453309 234 212 176
0.701064 18.990963 0.450830 138 105 54
7.091266 17.085175 0.432160 231 212 178
-0.752489 19.453920 0.452934 240 216 178
-0.581688 19.419754 0.450784 235 215 181
7.094353 17.058905 0.428489 160 120 65
1.871084 18.653351 0.442472 182 145 108
1.871084 18.653351 0.442472 182 145 108
7.482138 16.958828 0.427564 238 216 177
-0.363232 19.291613 0.443567 242 217 181
10.370214 16.091644 0.415759 162 128 80
8.647649 16.599283 0.418206 226 203 171
6.616392 17.216791 0.421894 232 210 175
10.467791 16.024393 0.410055 230 211 175
-2.617252 19.960941 0.440976 231 207 171
-2.617252 19.960941 0.440976 231 207 171
1.722701 18.695429 0.431764 241 218 181
1.824414 18.608583 0.427392 149 122 85
8.246588 16.728785 0.412267 234 212 173
7.752105 16.860188 0.412031 167 129 82
2.021383 18.546854 0.423986 222 189 140
-3.110947 20.140585 0.433290 232 209 174
-1.753205 19.730646 0.425225 237 212 177
9.582349 16.329189 0.394495 181 174 151
-2.293962 19.883995 0.420646 148 112 71
-0.089043 19.189651 0.414983 153 125 81
-0.610021 19.365147 0.414966 232 208 170
-0.343719 19.274921 0.414001 149 116 71
0.677629 19.002659 0.412237 190 171 149
9.871699 16.213442 0.389197 154 119 77
0.647889 19.012320 0.409477 240 216 177
10.682317 15.953379 0.384941 198 163 113
-0.239459 19.265770 0.410359 219 197 155
0.401079 19.034210 0.408215 236 214 178
10.632894 15.992254 0.383487 231 211 178
-2.466589 19.917934 0.412284 218 197 164
-2.220612 19.845945 0.411112 211 192 169
8.339540 16.646986 0.386801 233 208 172
1.034387 18.853323 0.400745 189 160 109
-2.326035 19.866783 0.407580 144 109 49
8.168198 16.738014 0.384932 232 210 175
1.720519 18.687576 0.399050 244 217 178
-2.822310 20.009022 0.407462 227 206 172
-2.042185 19.782850 0.405983 215 194 161
4.898285 17.707239 0.390910 236 213 176
1.441684 18.708782 0.395829 233 209 173
10.661203 15.969771 0.373572 235 209 175
0.793804 18.889029 0.390129 240 211 171
0.161022 19.130589 0.391128 238 214 179
-0.780469 19.406366 0.392824 237 215 178
9.729945 16.252586 0.368390 231 209 172
0.417025 19.057858 0.387873 171 134 71
-2.971822 20.059402 0.393555 231 210 169
-1.456883 19.605389 0.389660 186 161 136
-1.456883 19.605389 0.389660 186 161 136
1.519368 18.710846 0.383741 237 214 175
-0.892902 19.439369 0.386695 231 212 181
8.818419 16.504110 0.365959 231 197 142
-1.420382 19.581711 0.386504 236 212 177
9.345694 16.349991 0.363846 157 122 77
9.345694 16.349991 0.363846 157 122 77
10.678443 15.944829 0.360649 229 208 174
1.233641 18.780451 0.379890 251 221 185
7.757146 16.846018 0.366875 151 116 70
-2.939776 20.047668 0.387816 217 197 164
-1.718552 19.667166 0.383492 231 209 174
-2.407712 19.888975 0.383924 148 114 74
8.049805 16.745720 0.362543 219 200 167
10.656732 15.944644 0.357085 157 126 92
1.011741 18.885853 0.376408 234 207 174
1.559437 18.723568 0.375041 120 89 61
-0.212891 19.225906 0.377740 232 210 175
-0.212891 19.225906 0.377740 232 210 175
2.613413 18.373390 0.369782 243 221 180
-1.154730 19.517874 0.373972 236 210 179
-1.154730 19.517874 0.373972 236 210 179
8.680861 16.562309 0.355206 243 221 183
0.558509 18.987700 0.370077 108 71 21
1.910737 18.571199 0.367299 223 191 155
-2.187268 19.772375 0.374069 210 190 160
1.851841 18.596464 0.366400 240 217 182
3.639382 18.054806 0.360727 236 212 176
0.275856 19.073427 0.366923 140 108 63
-0.940303 19.423878 0.368573 236 209 174
7.301785 16.959551 0.352952 231 211 175
-3.082462 20.058165 0.369524 240 214 177
1.512168 18.727839 0.361292 114 79 16
1.036795 18.855743 0.361499 219 199 167
-1.350557 19.572813 0.364657 223 203 167
0.850698 18.863102 0.356367 165 137 91
-2.686412 19.974161 0.360991 237 217 181
-2.686412 19.974161 0.360991 237 217 181
-1.075848 19.471075 0.356157 219 200 171
-0.011721 19.149786 0.353971 227 208 179
-0.011721 19.149786 0.353971 227 208 179
-2.888806 20.030523 0.358719 117 98 58
1.269796 18.756609 0.350227 214 193 157
-0.438058 19.288429 0.351863 106 80 29
1.434417 18.700846 0.348235 240 218 180
9.185487 16.380312 0.333457 237 214 178
-2.859195 19.992861 0.354788 236 214 178
4.693421 17.752909 0.341670 241 217 181
8.640333 16.528114 0.333669 193 166 131
-2.022856 19.741240 0.351125 227 203 166
0.511331 19.010090 0.347365 221 202 166
0.590417 18.988523 0.347278 240 214 177
-2.305420 19.855082 0.350840 175 160 129
5.064119 17.632467 0.337617 242 217 183
8.776843 16.511229 0.330599 231 213 177
0.269448 19.083744 0.344289 215 197 166
6.744255 17.114239 0.333506 239 214 173
4.202219 17.853296 0.336524 160 127 82
7.522987 16.861958 0.329319 246 225 194
1.305544 18.750458 0.339888 231 212 184
8.210694 16.684038 0.328363 234 214 180
-2.635758 19.918615 0.344449 241 222 184
6.640266 17.176760 0.327909 236 213 174
8.453022 16.594286 0.323190 239 215 177
8.453022 16.594286 0.323190 239 215 177
8.937658 16.454605 0.322429 238 213 178
9.053106 16.412029 0.321898 238 211 168
1.628401 18.642950 0.332061 127 95 35
9.047100 16.402372 0.318587 159 135 110
7.962317 16.731464 0.318832 235 216 180
7.285015 16.935366 0.318638 216 201 167
7.908369 16.761038 0.317852 238 214 176
0.430152 18.767277 0.325967 224 206 172
